NCOLS 177
NROWS 31
XLLCORNER 721630.248345
YLLCORNER 4421050.90688
CELLSIZE 30 
NODATA_value -9999 
1985.57584577044 1987.34171113869 1988.42028299984 1989.11253643327 1990.23687960961 1991.12183119131 1992.41987862359 1993.8954897397 1995.20190086461 1996.30162574339 1997.1310989833 1998.29819256731 1999.3509951179 2000.15477176685 2000.74421229222 2001.35245367316 2001.37710865456 2001.72224921716 2002.64428721744 2004.88448768355 2005.60776678054 2006.28092661775 2006.90163500488 2007.48711032657 2008.62403000494 2010.08576753342 2010.96159665937 2011.62696296184 2012.09291917632 2012.61920877604 2013.33955052275 2014.25941797911 2015.29013385262 2016.43290621555 2017.82505023176 2019.60316702957 2020.24472138951 2021.07932340711 2021.57211397879 2022.23985483668 2022.9941126614 2023.09000719193 2022.36814146621 2021.15319520418 2019.73304640834 2016.80010692211 2014.87757428622 2013.03315694399 2011.90952420765 2013.61900437034 2015.77240649255 2018.57977395982 2020.38791249737 2022.33678297793 2024.35121471054 2026.71091186843 2030.52666678749 2032.87180972322 2034.73468313142 2036.36869435601 2037.21454120649 2037.29938739961 2036.68047372264 2035.42069360191 2033.95537249266 2032.49759269281 2030.05206420406 2027.0567977949 2024.93266071185 2024.63966513596 2026.22744194358 2029.05558779467 2030.28488623805 2031.12336880128 2032.50824822954 2034.29313738625 2035.31353511707 2036.3850668126 2036.70932360821 2037.00310633124 2037.18341526954 2037.01370233453 2036.26067961122 2035.87419461734 2036.00646948179 2036.03170198339 2035.44115191823 2035.02774816653 2034.89726858994 2035.2244646723 2035.75718172217 2036.30544288819 2037.05351397361 2038.03261158573 2038.913047217 2039.84997204487 2040.95076054326 2041.93876121687 2043.79510765878 2045.81984978331 2047.60673668812 2049.12505618409 2050.58010701167 2053.74402771657 2055.93647884083 2056.97280458449 2057.78039461786 2058.78090166661 2060.3222474534 2061.48658185764 2062.46822995019 2064.47235704978 2066.17056595365 2067.13235237367 2068.34527338582 2069.05060218704 2069.47438804828 2069.67759010827 2069.69110824231 2069.18134164685 2068.17877592378 2067.54521575973 2067.30252100356 2067.42402097105 2068.17093758544 2068.58069130811 2068.57201349841 2068.47262026556 2068.54490443804 2068.69132006822 2067.75300751978 2066.720963154 2065.67788776638 2064.80392828597 2063.93427562311 2062.79620347637 2061.49213508049 2059.1182623812 2056.55391695634 2053.43004195369 2053.8527467812 2057.00442859407 2056.85061050846 2053.65970060121 2050.19669292362 2048.88324023086 2050.91232055275 2049.37861290114 2048.41829178058 2049.0706582759 2053.10607476697 2056.24715428104 2054.33729832112 2050.5187442423 2047.61593307035 2047.58716754885 2044.63017322894 2045.41647537601 2049.26796294714 2049.09526346333 2047.95050999994 2046.57496274459 2045.66777321212 2044.28926458533 2042.79343759339 2041.28061918553 2038.3086231586 2036.15526029744 2035.58720020056 2036.98065861622 2036.57089456464 2034.06379873204 2034.20897086624 2033.88486819304 2033.26710618549 2032.46673044293 2030.7154036599
1987.37756146569 1988.07058788881 1988.92585149814 1989.6111116603 1991.06038586706 1991.78199356104 1992.84232794119 1994.07835654197 1994.7073501231 1995.56293468549 1996.71234868184 1997.9821639387 1998.77914725375 1999.32938919639 2000.0466852356 2000.4691794062 2000.59761409557 2001.15645133765 2002.25049740873 2004.8659821767 2005.66114939757 2006.35710100759 2007.10223894086 2007.96946924776 2009.21028506417 2010.5897734411 2011.32687627081 2012.01578400288 2012.64602634108 2013.23663141053 2014.55940193943 2015.74935864104 2016.92182796975 2018.05438370744 2019.14356936193 2020.50191058823 2021.02096727119 2021.46837715772 2021.95980817636 2022.73009570312 2023.63516342676 2023.67962839286 2022.7494606538 2021.28981506537 2019.61650364784 2017.17419069051 2014.54057623111 2012.79606373334 2013.32962822089 2014.67852445513 2016.67824153704 2019.42402267967 2021.21326505595 2023.08086422527 2025.20391617053 2027.80462942606 2031.55486085216 2033.58981368296 2035.21872942268 2036.86249179635 2037.86214870789 2038.06503328873 2037.43667359533 2036.06588105701 2034.54841580136 2033.0403114902 2030.63252003136 2027.72238431036 2026.07674323246 2026.22397445736 2027.98581306648 2030.07241894138 2030.99147386131 2031.74259153094 2033.08992593827 2035.25029018526 2035.97242389769 2036.91617921659 2037.6459306858 2037.86012271878 2037.95450857945 2037.79046310377 2037.0921972281 2037.01236388333 2037.27947880134 2037.16514181759 2036.86527884879 2036.39999327281 2035.80410016204 2035.85394022745 2036.27222671615 2036.97539226786 2037.59235920528 2037.68526380141 2038.54173305603 2039.7874059527 2041.14785730724 2042.44466413603 2044.48145527069 2046.3252250328 2047.79381313132 2049.28749100567 2050.60851619764 2052.56041980016 2055.90529648704 2056.50007009615 2057.10174667494 2058.53380947914 2060.33042877152 2061.7051855381 2062.86832022745 2064.83832805024 2066.50500356118 2067.70325007488 2068.70663171124 2069.23902055421 2069.58724606697 2069.87402307926 2069.87499798508 2069.18234612665 2067.35647458799 2066.20062132084 2065.61666191727 2065.85360027403 2067.25109217928 2068.00153096563 2067.94575307437 2067.65149999138 2067.83971414476 2068.30104310144 2067.3937520515 2066.09118421099 2064.52510175239 2063.16208078226 2062.74908717652 2062.60459110519 2061.64090664066 2058.75900934773 2055.38555666712 2052.01018063219 2052.33003663121 2055.66997745595 2055.97549103449 2052.83483833437 2049.32256045829 2047.46935640794 2049.38094334699 2047.06160058798 2046.79731602146 2049.95097255158 2054.03529095195 2056.6548547406 2054.57586778254 2050.24097894695 2045.88075969585 2043.74223392822 2042.42686889227 2045.04571394991 2047.1534586174 2046.66019479929 2045.25569602899 2044.91010132164 2045.26754563632 2044.46031004163 2043.07382671957 2041.19643356468 2038.17244754562 2034.82539217446 2032.85691272518 2034.0293118866 2033.14319400774 2029.88145828682 2032.66737102587 2033.01916126382 2032.88872939017 2032.3806393162 2031.20189719089
1989.44256999717 1989.74406217916 1990.44418346878 1991.07491324306 1991.71133962377 1992.1327802969 1992.90667899659 1993.7384553696 1994.14077061044 1995.01566294644 1996.59228579261 1998.2799769168 1999.11448650053 1999.63675249331 2000.40304952252 2000.85291894701 2001.21464090151 2001.94123664303 2002.89691921542 2004.76451567692 2005.95511491512 2006.60502564555 2007.36330127545 2008.40589145102 2009.86116548086 2011.22765202804 2011.80711173465 2012.41457421164 2013.26187481206 2014.30767561759 2016.05960924618 2017.3662052579 2018.58421925173 2019.52388478714 2020.23851653076 2021.19526066252 2021.94687275887 2022.41887507827 2022.9003733464 2023.38493213315 2024.06674573754 2023.98840114577 2022.90836982747 2021.36393123061 2019.65573022154 2018.05538981266 2014.6853279026 2013.29711825915 2014.38811213536 2015.70001963898 2017.30270730648 2019.62350254435 2021.83770109826 2023.66163271336 2025.74880230652 2028.2339675988 2031.79508093001 2033.88832528301 2035.40027275378 2036.79894767011 2037.87110453849 2038.33323982897 2037.62452387487 2036.39638890872 2034.86313482599 2033.25643389009 2031.0640577082 2028.90168473668 2027.71979256363 2027.86819264104 2029.90849665818 2031.78093906232 2032.9760291488 2033.7673835147 2034.80821347649 2035.94213510956 2036.5304429842 2037.14619881196 2038.1057998749 2038.30990188333 2038.37080188239 2038.30887068583 2037.88924243302 2038.08059808463 2038.46648317855 2038.20440945872 2037.94306300011 2037.72819978714 2037.00771240151 2036.97302925774 2037.11996598315 2037.67693395672 2038.0904513719 2038.09935426605 2038.64726697673 2040.08671557568 2041.57200867602 2042.9001795532 2045.54358491374 2047.85849391869 2048.91251101905 2049.50278015738 2050.19304825948 2052.19254253161 2055.09568784187 2055.70683111877 2056.61395912757 2058.46566562713 2060.43322637833 2062.11419367099 2063.56289176207 2065.35686684746 2066.86656491547 2068.04638325803 2068.92814537839 2069.29093203842 2069.31097627284 2069.57232441971 2069.47786568174 2068.44875454833 2066.14164323193 2064.34489115939 2063.16941917488 2063.50064194173 2065.25436448602 2066.7802136068 2067.01304978217 2066.91049259733 2067.31090829606 2068.00376050186 2067.37158779265 2065.61863081642 2063.44349836165 2061.81998471551 2061.2876700998 2061.70757741903 2061.13139035191 2058.62186987773 2055.42539197514 2052.32436506196 2050.04228670104 2051.13894364448 2051.53720633573 2049.4380009994 2046.35874585362 2045.77764938474 2047.36370472657 2045.17903530805 2046.11968778312 2050.32437935308 2053.61411411502 2056.17946526159 2054.48109373501 2050.05223088198 2044.91069721369 2041.44042904722 2040.89557835244 2044.00632894995 2044.84421226029 2044.0184283372 2042.89379508936 2043.37240967746 2044.62143889423 2044.51417076401 2043.49710289402 2041.52470765773 2039.14926841182 2034.51975987878 2031.37305859839 2030.59546876264 2030.0025727766 2027.14687315835 2028.98258984634 2030.23896417064 2030.97543534703 2031.47542082322 2030.61585649164
1992.05658667641 1992.11277817878 1992.51106395455 1992.8860204368 1993.15550426128 1993.08475619704 1993.36932707595 1993.92750586628 1994.56927523186 1995.46714124727 1997.09462375481 1998.66487134967 1999.45602259263 1999.94627689231 2001.09733918718 2001.82638221767 2002.25602965103 2002.90392941765 2003.79440385089 2004.86421656259 2006.41369872971 2007.24728334516 2008.2268421477 2009.34239764307 2010.6435426673 2011.88375484779 2012.62545354195 2013.21130089604 2014.19980042712 2015.54853230152 2017.6083500603 2018.71205567479 2019.75023363221 2020.61318915082 2021.2670895383 2021.97192814544 2022.84882970601 2023.24584768232 2023.68616966567 2024.19125564764 2024.91284780077 2024.59838482445 2023.25305069431 2021.51775332286 2019.75676202986 2018.10530608657 2014.92798465733 2013.65756727193 2014.87644786344 2016.33020606809 2018.05161369443 2019.88808594028 2022.39352720514 2024.11839604774 2026.1030747099 2028.28281009434 2031.63728094135 2033.93808069821 2035.57833102518 2037.02201563373 2037.96956208331 2038.40926270609 2037.64400709702 2036.53891172952 2035.11677501604 2033.45441888176 2031.55685640822 2030.41474625104 2029.76537342546 2029.49205000436 2031.26886435437 2032.81580619213 2034.84102638468 2035.9388623215 2036.7046133525 2037.31854996599 2037.73835920808 2038.09222968 2038.56813813123 2038.73752025143 2038.73889101196 2038.61254565816 2038.22547021531 2038.5648322747 2039.60845199477 2039.71888983074 2039.27646901819 2038.97400726017 2038.33289594086 2038.26796317776 2038.28059075665 2038.67834582542 2039.19654047523 2039.78772300975 2040.28237090789 2041.0149576098 2042.12617036217 2043.33343609145 2045.47933202436 2048.42970543058 2049.61733321559 2050.06629058417 2050.51268677266 2052.28983054724 2054.96735650354 2056.17473550648 2057.57497255386 2059.26962927675 2060.95372114013 2063.121104326 2065.13830629984 2066.68413430177 2067.75895578506 2068.40646860394 2069.00602844937 2069.1965764015 2069.01245534163 2069.17322685706 2068.99148490361 2067.46154636493 2064.27990750415 2062.48000333292 2061.6220889126 2062.23184021051 2063.61752815913 2065.19102813437 2065.72046657554 2066.06806341858 2066.75116983759 2067.6474642218 2067.42621989312 2065.15188207674 2062.78025685931 2061.03631125395 2059.69730429911 2059.65093290461 2059.65445077507 2057.93067723353 2055.529702388 2053.04292138643 2050.45851166183 2047.82324822842 2045.63106413891 2044.74766654229 2043.12520982587 2042.73482913818 2043.27243978612 2042.95857522354 2046.29174710363 2050.37803652252 2053.65303881839 2056.02287310047 2054.25506557473 2050.0190796337 2044.86194249131 2040.58013881145 2038.16930042222 2041.84480163498 2042.36998617105 2041.78134382237 2041.40341476921 2042.56101542111 2044.14676249803 2044.3291403081 2043.51671528854 2041.73965490524 2039.55009956113 2035.101247297 2031.93898264491 2028.2115790486 2026.54470759285 2025.14090486905 2024.6445913292 2024.95523579019 2027.11838160953 2028.02159355907 2027.42303159606
1994.42793886211 1994.39215947876 1994.60416602173 1994.72719731798 1994.50911521987 1994.37568464224 1994.08302637128 1994.77070844543 1995.58305667801 1996.63747208873 1998.22222710815 1999.25219046265 1999.88002209034 2000.30829420795 2001.43408485331 2002.23135438926 2002.73684516061 2003.94632966202 2004.7438564006 2005.67560243012 2007.26515962034 2008.254644375 2009.41181327449 2010.58551712479 2011.71088073018 2012.93689187596 2013.97268688581 2014.71241598051 2015.77814097623 2017.14674720601 2019.15396774727 2020.08515813664 2020.89475453225 2021.75163824582 2022.44519144335 2023.11700804163 2023.79460918069 2024.10453590587 2024.4808817559 2024.92539096441 2025.44782367712 2025.15226238161 2023.74449985576 2021.72579181321 2019.7425885848 2018.1783654093 2015.67368556138 2014.96159804643 2015.70381848965 2016.9751962399 2018.51320572209 2020.23423704797 2022.74621983283 2024.55237854857 2026.45637124206 2028.45518995213 2030.88502776407 2033.99714862313 2036.01962131674 2037.37676405329 2038.16381442769 2038.42011782051 2037.63736474605 2036.66763912572 2035.4380475214 2033.99841367067 2032.52483498436 2031.90187797796 2031.45226244491 2030.90778910545 2031.77325190397 2033.4385833875 2036.1520857643 2037.36969045756 2037.99383401186 2038.41000826508 2038.73674921355 2039.06559531972 2039.45536006998 2039.57658399394 2039.53125154 2039.35222569709 2039.14849104052 2039.48408401053 2040.29109235042 2040.45449371832 2039.93065003094 2039.51431992717 2039.85250001237 2039.88077005446 2039.96913309007 2040.20231478823 2040.82400888717 2041.6554571986 2042.25316534734 2042.48294163924 2042.9145135839 2043.75967273832 2045.06017073397 2047.60927870717 2049.03782656117 2049.72225556104 2050.60904686586 2052.83776708527 2055.65669418933 2057.0090784556 2058.48309941899 2060.19267516642 2061.79338164827 2064.2248839291 2066.55943872543 2067.93047742207 2068.41503374996 2068.40444436323 2068.64093323134 2068.73536329552 2068.02910020962 2068.18198610339 2067.92131027885 2066.29139780788 2063.3545050659 2061.74936542137 2061.40392083153 2062.19921921012 2063.30264602328 2063.84315241108 2063.77617039895 2064.21106353451 2065.44850006209 2066.75691375836 2067.30837031169 2064.98502874434 2062.47388595939 2060.33193479856 2057.99329468657 2057.19008122277 2057.83944077589 2057.10685340371 2055.35366606001 2053.10416975675 2050.99680672891 2047.29482215614 2044.55410918607 2043.4146160137 2040.80360604854 2039.1937901009 2040.51495796068 2042.73904108773 2047.09731847212 2051.11079518011 2054.34518443822 2055.77961065582 2053.15146992448 2049.00953754733 2044.79873107404 2040.36315766332 2036.84199119661 2039.12716280257 2039.00737906485 2038.6476272337 2039.98627405742 2042.11707088422 2043.95050372445 2043.73269723899 2042.83188368324 2041.26186847097 2039.26653300214 2035.38577653204 2032.39572128634 2029.07930796294 2026.62520777191 2025.96222615353 2024.32627547197 2020.13259601345 2022.0446114735 2022.63396590185 2023.34418834924
1996.48056742214 1996.372051197 1996.35714245729 1996.33693265833 1995.8726644308 1995.29331976299 1994.66511932764 1995.33285526174 1996.59285542523 1997.98494034404 1999.68149585439 2000.45673711719 2000.91629931263 2001.26820790084 2001.86461950284 2002.7472575019 2003.39805217115 2004.34697873156 2005.08612744739 2005.98323649855 2007.76287955324 2009.54970349549 2010.8476597833 2011.91188605996 2012.97145507935 2014.3213628085 2015.56590718458 2016.46690247214 2017.53939343975 2018.66452513273 2019.92778799204 2021.50282076002 2022.38779221714 2023.13119448421 2023.74970438736 2024.33006513602 2024.85840586317 2025.02628735829 2025.24618522445 2025.55620791692 2025.94668608492 2025.70458930039 2024.3278087607 2022.14146925901 2020.0178829724 2018.57657544625 2016.7926795131 2016.52349839894 2016.99600351502 2018.03979933893 2019.22862817695 2020.7685114638 2022.98551845921 2024.70765051668 2026.59254117014 2028.54352488782 2030.78236367059 2034.38398943334 2036.7278769611 2037.79640257262 2038.36291742352 2038.47740572022 2037.69507201966 2036.87936342602 2035.92242963498 2034.99027386035 2034.104361494 2033.24545528054 2032.48952094469 2032.13422064329 2032.94430807811 2034.45334774512 2036.2609813207 2038.15989354193 2038.82971291608 2039.31973757919 2039.66506265029 2039.98817795372 2040.36762000522 2040.48783018879 2040.5614079046 2040.62945724697 2040.78690740826 2041.29143235858 2041.67632687754 2041.62535512247 2041.01676515582 2040.51109231442 2040.61327302989 2040.50751312899 2040.87502350697 2041.76475111464 2042.16017269514 2043.12317306944 2043.75520663797 2043.92653370082 2044.07626459366 2044.60148289467 2045.67264918486 2047.73916085015 2048.97434133507 2049.94910221443 2051.22757215861 2053.06195653182 2055.17434574447 2057.45955737811 2059.12137715962 2060.85920764927 2062.42718040915 2064.9437854944 2067.13299250138 2068.26773330306 2068.34570390099 2067.68301606165 2067.83334118717 2068.05279747456 2066.3924649204 2065.64495996643 2065.20056209551 2064.02505935818 2062.18163829179 2061.24232643506 2061.37959604252 2062.21385036634 2063.25689875531 2063.35914274917 2062.29461005607 2062.52027007932 2064.10121499344 2065.50213126401 2066.0320177264 2064.33219492496 2062.35432646658 2060.2985453365 2058.1013472736 2056.51541072804 2056.38535569736 2056.32906238606 2054.87371900732 2052.68057596418 2050.4092600875 2047.01206800671 2045.31230710299 2044.02335293587 2040.64226678157 2037.56545896563 2038.93206941207 2043.3489289995 2048.00135293373 2051.68584451136 2054.2629584038 2053.8281936101 2050.70046657631 2047.09380739532 2044.06587171256 2039.83432569892 2036.54993768299 2038.27030174415 2037.75418815849 2037.46417279181 2039.63315533774 2041.76871676498 2043.02904616632 2042.72392009349 2041.77570561531 2040.37871518957 2038.50330012926 2035.50421789332 2033.37110347245 2031.51518559974 2029.3738518209 2027.36792501881 2025.32061521764 2019.20037064612 2018.5009357087 2019.1106244511 2021.96610372328
1998.56948823708 1998.28659243232 1998.04730232486 1997.8241181406 1997.48549390365 1996.53820224553 1996.13895369358 1996.60854104721 1997.82011788034 1999.23766045868 2000.90247814138 2001.55812680312 2002.01305993042 2002.41163033336 2002.84596271763 2003.73061384437 2004.39538950446 2005.01416528976 2005.50493624538 2006.42334726091 2008.45821940533 2009.93850049383 2011.28491186921 2012.63689455153 2014.27068565385 2015.70838764813 2017.14067943353 2018.17984640876 2019.07619457451 2019.86721751351 2020.70309319127 2022.89203057985 2023.94545707789 2024.62298842604 2025.01430752231 2025.29748484672 2025.61420320719 2025.72858472739 2025.90317127274 2026.17917405265 2026.45738763331 2025.95855239972 2024.55971770533 2022.64941829022 2020.78409038747 2019.3453795703 2018.11747015329 2017.30740946917 2017.77682791354 2018.7686713844 2019.73061739067 2021.19119229221 2023.27674057159 2024.86117430248 2026.78847900031 2028.89155074891 2031.0325426823 2034.5514922423 2036.95219228981 2037.86580333696 2038.45610394228 2038.63864951533 2038.18649379328 2037.17258912588 2036.47784299168 2035.94162256632 2035.37032589745 2034.45205966863 2033.54557666027 2033.28301157613 2034.40736918499 2035.65142362777 2036.73344326022 2038.58853360721 2039.39150375887 2039.98756241433 2040.43692082099 2040.80451585363 2041.17908053739 2041.47301120495 2041.64027574931 2041.81669293959 2042.04150876555 2042.85080544114 2043.48072809412 2043.36572798988 2042.5083534903 2042.01404412979 2041.97929628487 2042.04905471988 2042.09395036226 2042.18285834829 2042.50173243974 2043.48753334753 2044.51855112072 2045.13156474485 2045.43526156104 2045.93502075945 2046.69728410121 2048.33784957311 2049.59037528267 2050.56276622094 2051.9926607543 2053.54085620805 2055.2383810133 2057.79702034008 2059.57781707254 2061.12573567762 2062.49882372798 2064.88351136393 2066.86651172148 2067.58000641155 2067.26492262966 2066.59721880163 2066.73888723209 2066.17799138217 2063.67339536708 2062.21443824791 2062.22640267001 2061.71478872978 2060.14010606442 2059.72006158753 2061.1190489639 2062.23669790463 2063.15585212637 2063.0158833049 2061.9376321675 2062.16404675002 2063.7922593745 2064.02577142027 2064.32178633551 2063.4220417776 2062.30192945734 2060.58651081822 2058.57238126878 2056.68307660201 2055.65842791246 2055.07777985732 2053.31907214659 2051.63752020351 2050.04085576735 2046.20733089951 2043.89208998897 2043.11106658279 2040.62296772452 2037.74181193653 2037.99682869285 2043.60032091665 2047.29580367382 2049.806050757 2051.63795933153 2050.98197477418 2047.63305304332 2044.5573735483 2042.11692781193 2039.23719514157 2035.77239641069 2035.40851797122 2036.32414227378 2038.19117307047 2039.97848518513 2041.64991583049 2042.64803252468 2041.56950386458 2039.70601724643 2038.86854533285 2038.28415788692 2037.18761904443 2034.85785681824 2032.43160919811 2029.84674543045 2025.90996139892 2024.1642502191 2019.60959640855 2017.27954806786 2017.37422505144 2020.37958555751
2000.36480549593 2000.00343360655 1999.62019033622 1999.48773022303 1999.23383267181 1998.307713755 1998.26127037465 1998.58321053837 1999.25694441673 2000.35101375955 2001.78677803136 2002.48056707855 2003.0145522454 2003.4886350327 2003.97983847725 2004.80853625428 2005.45689948717 2006.01361104226 2006.39291762031 2006.80127575272 2008.14175762142 2011.25327323057 2012.54162355905 2013.49336102916 2014.55619716358 2016.0103196723 2017.48053134772 2018.97148220986 2020.02837587355 2020.74350390043 2021.58711422118 2023.94896250129 2025.15788547571 2025.49488332146 2025.71787164746 2025.90915913962 2026.1439367545 2026.38655758622 2026.54843564179 2026.73443976989 2026.83951143502 2026.02490738269 2024.57908533372 2022.97385879381 2021.40435178774 2019.8355319211 2018.58273677293 2017.69817027304 2018.05782643427 2018.56740382227 2019.14618225352 2020.90320625798 2023.5626507465 2025.1268222498 2027.14911521907 2029.40573207602 2031.47240596272 2034.72625783007 2036.72214431395 2037.83119655146 2038.46513469744 2038.679761278 2038.38540030384 2037.66871260748 2037.37569820221 2036.96638363316 2036.38659892997 2035.73149140744 2034.8480839454 2034.57976316765 2036.53486655851 2037.31875947182 2037.80030663153 2039.31241372163 2040.09265655819 2040.74650099901 2041.25745907203 2041.65110127974 2042.03140274816 2042.4015215667 2042.65322852884 2042.99729075589 2043.21225220269 2044.16676501825 2045.00032124332 2044.862589114 2044.06051464886 2043.63132475461 2043.41916519762 2043.90574852046 2043.56675221892 2043.38394610052 2043.36477567294 2043.56865318287 2044.3824501743 2045.38024907795 2045.73298759864 2046.96821015842 2047.59961216302 2048.67751884851 2049.73189928302 2050.97232346517 2052.56394899434 2054.26495768349 2055.93683817248 2058.02443971227 2059.49170740146 2060.83266872717 2062.15735650089 2063.65868898882 2065.36204806801 2065.80693625132 2064.96076914441 2064.35149602529 2064.39360600387 2062.73593693947 2060.98545419328 2059.93152896506 2059.53970237386 2058.86139403853 2057.45500998954 2057.72953806057 2060.55049660562 2062.10588506727 2062.92026457598 2063.05605816028 2061.93240443424 2061.75119990202 2063.06479062195 2063.68644523421 2063.96406777304 2063.23694303127 2062.29644769068 2060.68550815125 2058.70328875667 2056.69748882998 2054.3825978654 2051.67427268913 2049.60030903792 2048.66035648484 2048.0198201171 2045.65647964155 2044.05380118218 2041.9334445983 2038.41109976418 2036.72467883797 2037.19984649604 2043.41494843369 2044.60761987911 2047.28450972053 2050.12326778706 2049.67609210253 2045.40802925477 2042.27785397084 2040.26687475415 2038.53151171873 2035.28922570925 2031.73073722339 2035.77528390425 2038.45553548875 2040.04421715414 2040.92944918138 2040.8862490341 2040.26359509151 2039.17582860723 2038.49111876194 2038.29266873 2038.26724896791 2035.93061026679 2032.29417969569 2028.94020256828 2025.06405729562 2022.52370720389 2018.39550072616 2015.40227930369 2014.20259098438 2017.13431190919
2001.70284236016 2001.36955245004 2001.04090656275 2001.08673602549 2000.81540379315 1999.91676714606 1999.51944922099 1999.88774965979 2000.36113756166 2001.21064556064 2002.27706102069 2003.38150635628 2004.06308898969 2004.6483585654 2005.14498900364 2005.88480689613 2006.53654760051 2007.17230343447 2007.71802306775 2008.26127422099 2009.44377731828 2012.30594418787 2013.55317462122 2014.44887098314 2015.53298373345 2017.10006951705 2018.62971813573 2019.45633927926 2020.14942671341 2020.86404636799 2021.71700780511 2024.15444654751 2025.2404940192 2025.74994946038 2026.12667382132 2026.38076238571 2026.67777956068 2026.97538331842 2027.09812219338 2027.16274979569 2027.07202689988 2026.16475091431 2024.87991513696 2023.41431763857 2021.84848775015 2020.1538863016 2018.89446216357 2018.44258534219 2018.8140523183 2019.10135121978 2019.97452843065 2021.09515081341 2023.42166414236 2025.76648540638 2027.66308689174 2029.85814037706 2031.83337428939 2034.77478014715 2036.50764909988 2037.68167628806 2038.45114951145 2038.74984496768 2038.54192271004 2037.75059590661 2037.52433658831 2037.45838615374 2037.48694093046 2037.35907392024 2036.47476498723 2036.07851354551 2037.56334361733 2038.50284236713 2038.97038941213 2040.23183082995 2041.02968487172 2041.6614976854 2042.15380912092 2042.55511641056 2042.98834196523 2043.47158128938 2043.81904795413 2044.23875939785 2044.6842133701 2045.26345346132 2046.31065456394 2046.49686982548 2046.08122219323 2045.65454605906 2045.40282002304 2045.68471534444 2045.55458550104 2045.15691712139 2045.09403961763 2045.10049863275 2045.73804211523 2046.76908255613 2047.18965385382 2047.51660266057 2047.72773247072 2048.19792687323 2049.68498619937 2051.37220310776 2052.7381438797 2054.05418256837 2055.63963988559 2057.71108487223 2059.37040361453 2060.71378844428 2061.93803037067 2063.08063249402 2064.05970020925 2063.80293045421 2062.36965885176 2061.58482409151 2062.09349472352 2061.35296580312 2059.01205503051 2057.82478353101 2057.33796093281 2056.81390124277 2056.16648663331 2057.4374538053 2060.15247490328 2061.84644826669 2062.53570353442 2062.62894518038 2061.58423466695 2061.22385005539 2062.02799252832 2062.74029610991 2063.16542922844 2062.93374185147 2062.20394164413 2060.69345249397 2058.71599154251 2056.78255746664 2054.2629469355 2051.58623013316 2049.732126768 2045.17020708677 2043.63066679702 2043.94044787526 2043.75804241907 2041.39523124952 2038.3608963398 2035.91514651912 2035.65143672081 2040.72574165088 2041.80307504958 2046.13245023731 2049.68169044888 2049.03085319348 2043.44412258665 2040.07178565937 2037.87757747954 2036.17219438055 2033.71474764436 2030.7425599259 2036.2318107782 2038.62158168649 2039.47767749376 2039.2633972746 2038.32457609677 2037.86518767958 2037.49277773551 2037.26186195161 2037.84960685127 2038.33886568621 2036.07259717187 2032.2546492337 2028.72519270747 2024.93774574248 2021.98899775246 2018.34722012057 2013.4961964145 2012.73659136177 2015.12860669984
2002.62944094114 2002.55894674711 2002.38013059907 2002.30246862834 2002.0955628402 2001.2278932565 2000.63016947321 2000.89504190379 2001.44679772058 2002.11734461475 2003.15766476067 2004.33085178066 2005.07463026738 2005.81378147996 2006.41086113983 2006.92375900656 2007.69826423646 2008.46462812757 2009.16367663253 2009.97172787276 2010.99794084131 2012.53095042583 2013.48922474678 2015.02831719604 2016.4960688901 2017.66665582469 2019.074983908 2020.12648905276 2020.67355114313 2021.35116115529 2022.39075943901 2024.20680756856 2025.23224154201 2025.74333886351 2025.91204184169 2026.36173651743 2026.93126015096 2027.38140922121 2027.48219491841 2027.48609359848 2027.3433498089 2026.94785586623 2025.6203044312 2024.16961864601 2022.54613309374 2020.96006808832 2019.70469105752 2019.57260387004 2020.06679374565 2020.39640660626 2021.19586435174 2022.31359469205 2024.02406624853 2026.24054064292 2028.10312556371 2030.01515162617 2031.87838794385 2033.74425692894 2036.8900502637 2037.93686630332 2038.51495649177 2038.92891231641 2038.92886582989 2038.41766803159 2038.13110378308 2037.84808978856 2037.57899091545 2037.49758142984 2036.61266394979 2036.66347123725 2037.70944951586 2038.84397720149 2039.75982241882 2041.14753042078 2041.94236323893 2042.68752911271 2043.22574546841 2043.6105061409 2044.09702855737 2044.67506384835 2045.06459003087 2045.56986940042 2046.27272893473 2047.03447078247 2048.04690726371 2048.48108707191 2048.32398719894 2047.99649797255 2047.84677450528 2048.15519046605 2047.98765233003 2047.87299733103 2047.69991984778 2047.47816679826 2047.52793585634 2048.34721389975 2049.03882709935 2048.99314607228 2048.65040608797 2048.92088766583 2050.20133679004 2051.40565891735 2052.74687391641 2053.93881318114 2055.08033184295 2057.3769140544 2059.16852578748 2060.61904959997 2061.77148362935 2062.65636439803 2063.2320108811 2062.52396783108 2060.95575684681 2059.53906209654 2058.91906023698 2058.20041778361 2055.32629350354 2055.17228127083 2052.62248563364 2051.97098723926 2052.59894329245 2058.33895086437 2060.79707026478 2061.7422610511 2061.92920657491 2061.95420847603 2060.91397529041 2060.6901693218 2061.47907590613 2062.05679549027 2062.01430778907 2062.14061435371 2061.96137791009 2060.55762937757 2058.73788717895 2056.78032832819 2054.2730408616 2051.63509509723 2049.80613101038 2046.96140317124 2043.74643725199 2042.58575538719 2038.73928660219 2038.27744368188 2037.78039199883 2035.55011749159 2033.11457275383 2036.12469231158 2040.41423435315 2044.0944301264 2047.24361057163 2047.20931344743 2039.84336332675 2036.59066643818 2035.42608080933 2033.28305898166 2031.48078797737 2029.3259485005 2038.10910082301 2039.46500651098 2039.52391705724 2038.5250059869 2036.8464510549 2035.71676427364 2035.73768012626 2035.97957473665 2036.70317123496 2037.30124098223 2035.77587887578 2032.27083969516 2028.71962644096 2024.93144886519 2021.96022497286 2018.59821521551 2013.88537847261 2011.56002908192 2013.17031249813
2002.59426245117 2002.62105642405 2003.28316533553 2003.39902066901 2003.18647956538 2002.36183826982 2002.12426773793 2002.34249849588 2002.82327189941 2003.4155397757 2004.28573121963 2005.29631603468 2006.02613665676 2006.85545432167 2007.64887624496 2008.23771160753 2009.16301344484 2009.97150618517 2010.7557413184 2011.55327151973 2012.49344426217 2013.67876361431 2014.51345363557 2015.70565830223 2017.25717330222 2018.47652109308 2019.6734560767 2020.55664911459 2021.0509054083 2021.61369243957 2022.40298585984 2023.11500162392 2024.64306784473 2025.45970297039 2025.85085136443 2026.32864306476 2026.93205337284 2027.48198916212 2027.72604176195 2027.76273644545 2027.66130571953 2027.32866012969 2026.12973229617 2025.007421497 2023.53683388771 2022.10285768386 2020.95065374596 2021.15693647829 2021.77252424054 2022.34341603007 2023.11522735305 2023.90311050731 2025.07561068542 2026.94442583125 2028.65095119443 2030.24897115278 2031.91653435637 2033.94258457861 2037.12627151388 2038.21013124548 2038.78776309835 2039.16020425101 2039.30688858724 2039.12505505001 2038.90720392006 2038.67732300594 2038.55432862868 2038.52086566072 2037.55491961487 2036.99927123478 2037.75074558755 2038.87500163609 2040.32135230872 2041.15891001854 2042.57372050421 2043.43633409304 2044.1320151277 2044.61676344409 2045.15476425679 2045.81546236035 2046.35249456299 2047.03677947071 2047.87850800779 2048.73552042967 2049.91887639975 2050.36858217716 2050.2420559606 2049.92055014241 2050.07382908585 2049.96328296709 2049.94943028225 2049.95647450837 2049.77076956578 2049.47738094302 2048.92272818521 2048.86440577355 2049.86390787446 2050.13885048956 2049.71631497566 2049.60454295569 2050.95806161368 2051.92756357564 2052.94036453859 2053.84802182814 2054.78550426412 2056.34917343354 2059.16002343962 2060.3321988472 2061.06024369434 2061.80313498125 2062.24687785189 2061.12328750098 2059.14796798576 2057.08141164236 2055.20905758642 2054.34819379431 2051.935312668 2051.02586491515 2049.07150848855 2051.22726450638 2056.26878766461 2058.23640654972 2059.49857541818 2060.21415509735 2060.67593216554 2060.71994957162 2059.8119255764 2059.71958090485 2060.48329727283 2061.00728140712 2061.19284904754 2061.83794671354 2061.66596794445 2060.38811423738 2059.02661267467 2057.45013442853 2055.04026958408 2052.62387891958 2050.71095035554 2047.28041338395 2043.85852843159 2042.7130128642 2041.79767535249 2038.57096491977 2036.51432845381 2034.30121510608 2031.87158499563 2033.31374715069 2038.89947632461 2040.97082953694 2043.35880909104 2045.21946047045 2040.00900642661 2033.88468527957 2031.17043215133 2029.50822232563 2024.92643651474 2031.89042897402 2038.74775838397 2039.04190130828 2039.29622057583 2038.43840581903 2035.1933308512 2032.78396773846 2033.21302372577 2034.3749260031 2035.2809396767 2035.65069626069 2034.26125102763 2032.4223599488 2028.92225392341 2024.32048652698 2021.88094236792 2018.2432699687 2014.05114929554 2011.56119659126 2011.6297986224
2002.99675926005 2003.46080075381 2003.53472288375 2003.52299924894 2003.31800083599 2003.80274498116 2003.89656159867 2004.08756680756 2004.42734255865 2004.95162189801 2005.43661085136 2006.15630986568 2006.93479790318 2007.8164582932 2008.76370062646 2009.55997311164 2010.77550721451 2011.63820379168 2012.3388105442 2013.03443881127 2013.58643403199 2014.43408590125 2015.2777843427 2016.5082385951 2017.87956000911 2018.90883404108 2019.75316415284 2020.15104660877 2020.35003707794 2020.72210357892 2021.22200085741 2021.83532151714 2023.3714710237 2024.20795303638 2024.90224265843 2025.79613484687 2026.85190668987 2027.55136097108 2027.74577315162 2027.79608385227 2027.88894101408 2027.77294601506 2026.58075920743 2025.47471837483 2024.26723370481 2023.20282148615 2022.68099596169 2022.70057605983 2023.52742291188 2024.23731375476 2024.87894512553 2025.65337876279 2026.53671844618 2028.07727393601 2029.5905430851 2031.13826953055 2032.67888529263 2034.46288416118 2037.0247362105 2037.98923224209 2038.70011689429 2039.22323709158 2039.60030052197 2039.76891088201 2039.73925107661 2039.6770079088 2039.61636202076 2039.40275606004 2038.40417864374 2038.06835607465 2038.60404516182 2039.47221828366 2040.46005039147 2041.22329471723 2042.61353459021 2043.52578346996 2044.61754328624 2045.27341782098 2045.87262514206 2046.67410842564 2047.56556561801 2048.30086418194 2049.23127774036 2050.1276195625 2051.31140430253 2051.76700986776 2051.7061161661 2051.64012396644 2051.48755487266 2051.61958376852 2051.29838510978 2050.96204104557 2050.65404909819 2050.49712375574 2050.07748373134 2049.46716562688 2049.89430278808 2050.65250293499 2050.66760808693 2050.41322500809 2051.82131982306 2052.79402697462 2053.73012546894 2054.6822461993 2055.53224643122 2056.85992602485 2058.89887854177 2059.86647095851 2060.80583987228 2061.59289446596 2060.84514411607 2059.07786356859 2057.29507931976 2055.47796227078 2053.38562422335 2051.58035650928 2048.70238865928 2049.24192091251 2049.27916412552 2054.66803216099 2056.13399927474 2056.37646570852 2057.6362823347 2058.31356559852 2058.58710144487 2058.52779373223 2057.8511489564 2057.29364072483 2058.22356332751 2060.19523137357 2061.61087617573 2062.07435125905 2061.16182968683 2059.99733083757 2058.83223184968 2057.74176810905 2056.62332348362 2053.95301968546 2051.31201871053 2049.0729585101 2046.15206384179 2045.70513596957 2042.29878675358 2038.95564780692 2036.70851200267 2034.30094971294 2031.64127693434 2032.07118469209 2036.69612347857 2040.94697816038 2044.31091289785 2044.94336818243 2042.92379968827 2035.33776837118 2030.39429095076 2025.8237189081 2025.53627293576 2032.60500089735 2037.07997224816 2037.57384738778 2038.11140354927 2036.51550435578 2032.07200304207 2029.82933726906 2031.80199137307 2033.27152548596 2033.43669355184 2033.66717965647 2033.74917875967 2032.65140909376 2030.23074335938 2027.01594996595 2025.09302449533 2022.23454512215 2016.84869880232 2012.1501695646 2009.84351249305
2003.40587606383 2004.26531890443 2004.52895666404 2004.55974626059 2004.40844195693 2004.1712616795 2004.17120987921 2004.39693881117 2005.00636150695 2006.15389097287 2006.34042176846 2006.95091312204 2007.98037974044 2009.09971741495 2010.11684475766 2010.94848659617 2012.20034928535 2012.98952431741 2013.42325572732 2013.79054357 2014.20878417077 2014.81637506295 2015.99672424137 2016.97807268742 2017.90504019081 2018.5951214593 2018.93268759941 2018.97289297907 2018.92604917413 2019.08216211881 2019.59063894057 2020.21341247323 2021.80398510272 2023.5195038713 2024.92912299085 2025.82973802755 2026.56273183426 2027.30310259305 2027.90181536751 2028.08370266698 2028.09039083062 2027.88100517155 2026.70619935619 2025.58743047203 2024.988256193 2024.00881549727 2023.6279326832 2024.29400298354 2025.17683411782 2025.80450901904 2026.46365652336 2027.05694843671 2028.05458376928 2029.47011449259 2030.77050064014 2032.00016607283 2033.48383053866 2035.05169676901 2037.218271987 2038.10103067526 2038.78787622978 2039.47175688903 2040.03822454553 2040.42988639269 2040.62351363416 2040.66534726701 2040.57724011365 2040.29611934304 2039.78917742357 2039.73444730726 2040.1683915236 2040.70888016516 2041.29073412051 2041.78541119166 2042.93207662008 2043.8120507589 2044.68938916395 2045.38227308977 2046.1997708989 2047.4227960213 2048.39866169696 2049.17660672419 2050.21201786271 2051.17663984773 2052.26269654416 2052.72262752469 2052.67032802418 2052.29780214563 2052.29144900118 2052.49643109746 2052.3555140404 2051.9349873498 2051.66923452352 2051.59662399068 2051.44359827569 2051.09910066076 2051.14699424784 2051.58606030411 2051.81535081214 2051.8481013364 2052.90303119701 2053.63759028299 2054.45390855623 2055.42031237214 2056.27929136726 2057.0513016459 2057.36774242821 2057.51260380764 2058.60318022224 2059.71256980334 2060.15897974848 2058.62581273299 2056.85212270605 2055.16544855695 2052.04238714814 2049.78855844315 2046.97382136011 2046.03415594792 2049.90102366119 2053.14140669453 2052.34592760505 2053.43618409242 2056.75497270413 2056.60537457154 2056.34124090315 2055.84479277395 2056.05024969202 2055.55576922195 2057.52675842625 2060.02138404895 2061.79837344795 2061.69124991162 2060.38291403609 2058.99250889812 2057.86061040539 2057.13033469334 2056.26954923804 2053.65837018746 2051.48226338436 2050.55977883187 2050.18849329559 2049.67313614551 2046.07897813104 2041.60743356739 2037.96999791572 2034.08692920609 2031.2353412701 2032.03821342864 2037.01102009077 2041.19753836645 2044.15358904094 2044.28977853071 2041.32063126243 2034.54312958649 2030.17009846693 2026.40687210872 2024.09808668496 2029.83925002885 2033.3421275376 2037.09901356758 2037.41795895209 2035.24918671596 2031.27779271788 2029.21969837179 2031.57268489636 2032.33071995278 2031.55019158581 2031.5426842071 2032.39430397185 2033.09329858647 2032.76940934805 2031.95301596201 2030.08849757441 2025.61717827856 2018.64198603111 2014.14954803584 2009.1276696732
2003.9304089433 2005.13485841956 2005.56420918081 2005.64089537864 2005.51137099743 2005.3699062238 2005.53852178836 2005.88559380152 2006.23656453227 2006.47335251767 2006.55607744193 2007.53285238598 2009.04964653647 2010.20546562854 2011.29323784896 2012.34837531243 2013.21172811073 2013.58497808539 2013.89896269246 2014.23005426113 2014.59677366126 2015.19021788016 2016.1535189175 2016.73408390943 2017.21208389392 2017.46067010715 2017.54656752126 2017.81035863708 2018.02995665293 2018.35508521249 2018.58814490692 2018.79398714843 2020.09402091583 2022.34060240778 2024.70607351565 2025.68678550453 2026.2629941511 2027.06229815348 2028.01374440812 2028.41162028493 2028.60727650735 2028.48703391498 2027.56800885629 2026.29934018487 2025.23668344022 2024.23041634103 2023.92592346386 2025.33611465586 2025.95368156543 2026.83171360533 2027.69226570744 2028.80130379095 2029.41229023424 2030.29800660243 2031.69792407399 2033.17788778305 2034.61342943855 2035.85466522485 2037.53390434106 2038.60317429697 2039.29902238709 2040.04803693729 2040.73547424329 2041.25065218588 2041.50815078628 2041.51427243549 2041.43587068659 2041.32698562994 2041.30159194263 2041.45417150357 2041.728231221 2041.93376587126 2042.17997431044 2042.47481173443 2043.29148556704 2044.14745923473 2045.1066599783 2045.96581913984 2046.72757553867 2047.62356761299 2048.61960245915 2049.39794799479 2050.7188836265 2051.81167088631 2052.42200541933 2052.90844555693 2052.76176723052 2052.58106126454 2052.59542633784 2052.91118643073 2052.97388613549 2052.73713553335 2052.56648838572 2052.571075872 2052.67468112425 2052.69499354417 2052.79828441281 2052.95513064518 2052.99304319586 2053.09570633326 2053.75553519251 2054.42759738581 2055.23441672771 2056.02982085197 2056.68275379703 2056.66636366527 2055.75932577278 2055.58836767747 2056.37055128659 2057.54266623517 2057.6485392087 2055.87742796106 2054.69809164855 2053.55344263473 2051.72886556108 2049.71387665299 2047.05564033204 2044.92334415031 2048.72408731874 2050.08964278252 2048.93297645254 2051.87855830765 2054.86559569108 2053.40066875608 2052.95273220103 2050.83517087763 2051.47156388922 2055.98542671868 2058.74706083971 2060.12262850201 2060.76192711844 2060.40478242348 2059.13883336559 2057.31299399599 2056.18210049763 2055.64798224005 2054.86499217936 2051.50871237761 2049.38516772017 2049.57193510516 2050.70811387902 2050.77556896052 2049.73192663729 2041.4438273912 2037.14310771357 2031.65030901136 2029.23361886824 2031.91095945557 2037.43082399933 2040.90189499752 2043.75936023534 2043.89161734807 2040.48677507662 2033.48960300177 2029.40882044971 2025.99379454807 2020.71570669869 2024.26478028236 2031.16992323407 2036.67344643837 2036.13587717851 2034.05932423916 2030.43496495441 2028.29352442004 2030.56651317729 2031.27292266175 2030.42297404717 2030.47220746672 2031.43371225399 2032.86616091185 2032.86868150315 2032.47804358429 2031.25283188313 2026.37529480538 2020.96698842033 2014.70588659312 2009.46830328547
2004.2446404667 2005.78997639468 2006.52166753323 2006.71073623553 2006.64666034051 2006.49520702358 2006.59615377764 2006.8638143362 2007.33249257624 2007.62327345134 2007.82794475223 2008.54021970763 2009.63581783817 2010.74093298422 2011.80642642933 2013.07765930133 2013.65362215306 2013.9139798514 2014.12039845677 2014.37492407947 2014.64945363552 2015.0803658204 2015.62662419161 2015.84903481554 2015.96904681177 2015.96716481806 2016.11244991261 2016.93190667717 2017.59282642356 2017.91332510689 2018.17983410245 2018.49117548404 2019.35563694862 2021.31531191392 2024.11369598333 2025.07768085021 2025.72860436258 2026.73502499319 2028.07001097784 2028.71933261038 2029.11804350993 2029.17016920929 2028.79253206345 2027.31376212174 2026.04538825742 2025.1323873821 2025.03710043226 2025.69461072717 2026.41843915868 2027.31914354311 2028.45103030278 2030.08743028248 2030.66703397844 2031.32445695336 2032.59591689195 2034.2769887019 2035.87684210461 2036.92168882599 2037.59536182641 2039.12296910398 2039.96521969974 2040.80025537818 2041.54404208622 2042.13282107648 2042.3748163631 2042.30262498124 2042.2277718819 2042.18363833446 2042.29692493007 2042.66383425058 2042.86970350576 2042.94227914201 2043.06575657926 2043.25993434086 2043.89982223077 2044.80394038266 2045.69406075466 2046.5992500169 2047.41078553257 2048.37047118352 2049.42401412 2050.20776603806 2051.12877412063 2051.95405486506 2052.50466235192 2052.79651274067 2052.67436229894 2052.60658042503 2052.75491424283 2053.17319645833 2053.39560735391 2053.38284516748 2053.29930533929 2053.37897218254 2053.69844922556 2054.10919323966 2054.31834719068 2054.25909756298 2054.10613106185 2054.11600738935 2054.30418681685 2055.10038114938 2055.71658812446 2056.28719433968 2056.58778978903 2056.23653605914 2055.3529245137 2054.88350426972 2055.28587691424 2056.26231948158 2056.20150725552 2054.43793327214 2053.20684416104 2052.28078330931 2051.08697255283 2049.65459430399 2047.53409860234 2044.46893551347 2047.70676550123 2049.04741172301 2048.8812530455 2051.2890242155 2052.00792469016 2048.51354927944 2047.26252479627 2046.74091288231 2048.16773309763 2057.23448154769 2058.40683562146 2058.86860140352 2059.11730147114 2058.81778531364 2058.03921563282 2056.31744092718 2054.50398214106 2053.11724976959 2052.58806413789 2050.3601942175 2047.21688972409 2046.28064495738 2047.50248408297 2049.35026410714 2049.40981069575 2039.52577409183 2034.75614361322 2029.55791240166 2027.52598971267 2031.76315913549 2037.71754075372 2041.57865522036 2043.46033459104 2043.25491981317 2040.28055179608 2033.41712719024 2029.2796356022 2025.86794807847 2019.3005295543 2023.37096719709 2030.05677657377 2034.25689289819 2033.20833155677 2031.23104832204 2028.27176387049 2025.76897950749 2027.81591669796 2029.35141715512 2028.94944564348 2029.3613124612 2030.67260936332 2032.09747067497 2032.21733525241 2031.98217302914 2030.16902615987 2025.09572469477 2020.41514726958 2014.70851756428 2010.35246615101
2004.39278737537 2006.06265538798 2007.02134937701 2007.36633355856 2007.41758625036 2007.35377712717 2007.44546084226 2007.63966370509 2008.01887191963 2008.45216601293 2008.96174120184 2009.98496675882 2011.16105741477 2012.12420928109 2012.97774582241 2013.42117878784 2013.66695996562 2013.95617709859 2014.1258841473 2014.31610255226 2014.59090307232 2014.71120660982 2014.48281622974 2014.45672396525 2014.34231196188 2014.27747777333 2014.80001593053 2016.55384775078 2017.69221365555 2018.16433310854 2018.56121954064 2019.05771465428 2020.20311323656 2021.81969488498 2023.59632597422 2024.58121285161 2025.36574424243 2026.5120090712 2028.13441332072 2029.03912498595 2029.64759561332 2029.84778854851 2029.58892821418 2028.29319057143 2027.21085930216 2026.53825773518 2026.52146679286 2026.99172103777 2027.78458466388 2028.9089444886 2029.81588805695 2030.65872968013 2031.29666153823 2032.30991332731 2033.71894504939 2035.18189495134 2036.74793427456 2037.92160437572 2038.57007088855 2039.88772547246 2040.70985159408 2041.52978118837 2042.27376134055 2042.89823860196 2043.19085864324 2043.124159907 2043.01574143993 2042.94448257356 2042.98530621785 2043.55415206636 2043.84304483378 2043.91537935382 2044.11780443472 2044.27833697172 2044.66032098788 2045.76548552951 2046.5120704217 2047.3228968413 2048.05902924624 2048.97343661194 2050.00623859735 2050.77646528897 2051.58300153427 2052.25376797538 2052.64718662426 2052.7841627279 2052.65001558664 2052.55501236212 2052.71578556895 2053.24087527873 2053.55743772217 2053.76344348853 2053.81252246032 2053.94892749078 2054.29716620024 2055.03295726374 2055.43381322292 2055.31373668234 2055.20375135043 2055.16982309189 2055.19970449946 2055.63323326988 2055.75389346011 2055.95961905817 2056.1283225685 2055.73764203719 2054.98129462045 2054.20881382095 2054.50676070166 2055.06217599521 2054.90963235423 2052.76734690117 2051.57103205102 2051.40945328884 2050.94039469006 2049.8999478453 2047.57829851017 2043.62681165938 2044.7264378768 2046.26042489624 2048.55594366163 2051.27823724856 2050.83497642877 2046.05282285075 2043.24513671605 2045.17559597468 2049.05287436948 2056.38315134055 2057.00063346778 2057.48529237295 2057.90976585303 2057.24982329137 2056.48868834889 2055.5294997416 2053.21333206711 2050.41022699741 2050.12931148499 2049.1302827912 2044.98587220534 2041.60084014467 2042.37986700276 2045.82938911498 2047.06517302612 2037.07860596455 2032.45312459837 2028.00309405674 2026.16647283824 2031.46278743635 2038.88311909283 2044.95633601735 2045.51136347452 2044.78131757171 2041.32506592335 2034.75521397357 2029.34352434438 2025.50439392884 2019.39252573376 2022.04757333495 2028.62614241217 2032.67826895538 2031.52719706184 2029.16084435339 2025.99610577746 2022.51007614885 2024.04088558467 2026.5848565668 2026.39743916086 2027.61652083984 2029.36409263139 2030.86579497943 2031.11722945517 2031.24440307862 2028.73704640786 2024.01673957131 2019.81452501926 2014.86135218143 2011.50555513448
2004.74728894362 2006.30005849073 2007.22310051417 2007.44114123072 2007.31678456191 2007.34188106676 2007.5498052571 2008.01760667521 2008.43396786166 2008.94465185046 2009.5916903421 2010.69148924536 2011.82955805698 2012.62144985394 2013.23908594788 2013.5912639869 2013.79533670638 2013.88797282459 2013.95912813559 2014.09372946674 2014.28474260151 2014.25611451159 2013.73460105097 2013.55167451131 2013.33153540487 2013.36640510366 2014.26212374027 2016.57669738676 2017.98397254496 2018.58607426441 2019.19396761549 2020.02878135026 2021.05466614321 2023.23830050139 2024.12180144659 2024.87760367595 2025.53413245189 2026.54061576071 2028.22182086189 2029.5212127462 2030.22880948872 2030.55004782279 2030.4098816688 2029.43112142073 2028.78261921222 2028.50250603689 2028.44013161241 2028.62147336144 2029.18047258047 2030.37968909665 2031.31313551385 2032.07811725775 2032.7683189642 2033.517774482 2034.53501869639 2035.7652893473 2037.12682376862 2038.31858097084 2039.06585273159 2040.3702209351 2041.40971960794 2042.11059206011 2042.85659191454 2043.47824346999 2043.80903036874 2043.88495038591 2043.81038976778 2043.73868612164 2043.65473933559 2044.16269270304 2044.65237210413 2044.88140260276 2045.13945264052 2045.43987773243 2045.8030733261 2046.85253576647 2047.45795620117 2048.09487056036 2048.69450653478 2049.35338422986 2050.22720674963 2051.07170233731 2051.75895359577 2052.26588544019 2052.5435700244 2052.61408091951 2052.44428204204 2052.27710371002 2052.46801821055 2053.25190179386 2053.70641617074 2053.90712525757 2054.02966010284 2054.20382766537 2054.52433935034 2055.22591005313 2055.87311593289 2056.03454188975 2056.06893067708 2056.07621402875 2056.02720238619 2055.92949841529 2055.39825946432 2055.08774251595 2055.18013437611 2054.83737391956 2054.1603603034 2053.65318789323 2054.41194286705 2054.83471624152 2053.91949528851 2051.49770590256 2050.07996752999 2050.41257894699 2050.30806289496 2049.3996439264 2047.22975920478 2043.84120699892 2042.58060143654 2044.54077906156 2048.58279231371 2050.76842573055 2048.32222661426 2043.68256885763 2042.91039358556 2045.96751677747 2050.7852220574 2055.711380918 2055.94321957597 2056.79200897382 2057.1637195674 2056.20549244575 2055.15805966477 2053.89137462792 2052.10531500126 2049.68390822712 2048.25031201133 2046.90563135408 2043.30000176084 2038.99539051936 2038.44855262094 2040.32423915522 2041.7425817719 2035.62961412336 2030.31816684469 2026.1330649099 2026.6731355936 2032.398378696 2039.20576800099 2045.13020044905 2046.65976253239 2046.29152696694 2043.26521986139 2037.47255708314 2030.34670288164 2025.92956146718 2020.28580854093 2019.098385894 2024.33813812966 2030.97640109741 2030.19077005513 2028.05266318438 2025.20004234304 2021.10427943628 2023.14035216668 2024.84780797335 2024.35587087574 2026.05635206222 2027.82523770922 2029.03079173218 2029.51313460139 2029.45062484103 2027.21429925507 2023.54841551385 2018.70840333472 2012.72485915199 2009.94350771548
2004.24568868534 2006.00899919173 2006.93994130153 2006.87512546448 2006.39332479506 2006.49805060548 2007.03449369454 2008.00651972919 2008.52946932682 2009.03783119541 2009.64916962166 2010.72871326206 2011.78390599046 2012.47664599582 2013.1630179605 2013.52068574462 2013.64388019905 2013.40793850479 2013.34414724237 2013.33586648758 2013.39540649259 2013.37509813796 2013.28895287486 2013.17127261115 2013.13900295529 2013.40216707522 2014.38484258597 2016.62404615067 2018.15912357977 2018.98900783578 2020.02023000543 2021.26949143656 2022.69077542568 2024.8787198482 2025.40710804842 2025.74992708 2026.28588490766 2027.06390367572 2028.584004034 2030.11215368993 2030.804884156 2031.24256789326 2031.32599922484 2030.66019735591 2030.13492627354 2029.89669590522 2029.94195136071 2030.01205041745 2030.48694443745 2031.62435737381 2032.4569234962 2033.29421764335 2034.06949112449 2034.8715058564 2035.98222485113 2036.83794455129 2037.72252151047 2038.63345049304 2039.40288262811 2040.72793871505 2041.69028614355 2042.34661527235 2043.08533646265 2043.70047682807 2044.17929190854 2044.5037369249 2044.52861337974 2044.5218042 2044.5532006739 2044.82688441108 2045.35209047213 2045.75663335712 2046.10073844918 2046.4859338094 2046.89864683461 2047.83924512837 2048.39328471037 2048.96405423259 2049.3683694892 2049.70040600734 2050.3760564427 2051.20530269289 2051.75158762978 2052.1886725788 2052.39489768306 2052.39946243246 2051.96597641584 2051.77159703759 2052.06215633607 2053.1342974539 2053.780045387 2054.08826197504 2054.17699254503 2054.45069481732 2054.78676486434 2055.24772370093 2055.96277165511 2056.30889311715 2056.59281531158 2056.69979149232 2056.5471864567 2055.89064415393 2055.10323186041 2054.28717822469 2053.81361797262 2053.08916893535 2052.65021318348 2053.28723228944 2054.95891749285 2055.36556652223 2053.74557603517 2051.72796753616 2049.53656636169 2049.11058108491 2049.0246420086 2047.67634193591 2045.3598584377 2043.45634360865 2041.01973496047 2041.71031271646 2046.08669117534 2048.67611054233 2046.07055798079 2040.25632627011 2041.82140008825 2046.98938065799 2053.01971497109 2055.09540002328 2054.08571014344 2056.78337694704 2056.84738639097 2055.83961231646 2054.58462037451 2052.94135669099 2051.47185043016 2049.83337809354 2047.75995016349 2045.15376297061 2042.16067932151 2039.72996159022 2038.07984107957 2036.50643156561 2034.79491064581 2034.12122234957 2029.95553065197 2025.31866696871 2026.66444323423 2033.22247820595 2040.19073129015 2045.93495617644 2048.16672376632 2047.39414449897 2044.40539453015 2038.96651717333 2032.01810055821 2028.31519825409 2024.17422194568 2019.51921775139 2018.2574080681 2021.69736257649 2024.30282160961 2024.96732272995 2022.79297313396 2019.68524839366 2022.13000116863 2023.65861539184 2023.63397170915 2025.57591659396 2026.56401178045 2027.40109741875 2027.25248925551 2027.79714557837 2026.38750377243 2023.75820097083 2019.04474452575 2012.41162099614 2006.42569843897
2003.0047480066 2004.6763956297 2005.38819903112 2005.34931767109 2005.2520792056 2005.56260973792 2006.39895640838 2007.71021964511 2008.29092883714 2008.74984320315 2009.22728784878 2009.90822597738 2010.91122779632 2011.92793034838 2012.69540249348 2013.02244300202 2012.94354288244 2012.44722667763 2012.38079635216 2012.35407676694 2012.45396061911 2012.59604176429 2012.79166751881 2013.20208303408 2013.58096203678 2014.09044897222 2015.01422720322 2016.56990493578 2018.14363141134 2019.19962969719 2020.39314476907 2021.79446064957 2024.22295857999 2025.91606411712 2026.38624703086 2026.67836038684 2027.11172557606 2027.88867792859 2029.22298747298 2030.59681425403 2031.28620363917 2031.79022703333 2032.06632508932 2031.84106539714 2031.1842946696 2030.9719472478 2031.06251698786 2031.15247521423 2031.65727461165 2032.84117311779 2033.67344699495 2034.51894154171 2035.39200914919 2036.12699849132 2037.12726587833 2037.88596575618 2038.48558616753 2039.25900416163 2040.04965625273 2041.38005151731 2041.99739260749 2042.59471957132 2043.25335803001 2043.78464919918 2044.28873525446 2044.71091924694 2044.97095093526 2045.25918748406 2045.41843976394 2045.6224298396 2046.19236761986 2046.63372070916 2047.01138945198 2047.38372562422 2047.78857523383 2048.66265440584 2049.20713828168 2049.69352341123 2049.99088439866 2050.22107245938 2050.69004249148 2051.23896288321 2051.6888679389 2052.07243957176 2052.16503692145 2051.9916629306 2051.03294420482 2050.84218078122 2051.42478812372 2052.63170654548 2053.50130896529 2054.14930861499 2054.38067263021 2054.86821559208 2055.3129047197 2055.63580174301 2056.19584462231 2056.51315800461 2056.79071841341 2056.91504682817 2056.70829592819 2056.15828194684 2054.88357899067 2053.78267634817 2052.52746600747 2051.12960371946 2050.92645800028 2052.81842670197 2054.60226483322 2054.93392556363 2053.05971429856 2050.87269308888 2049.53489637169 2048.44469156502 2047.47101690559 2045.75318975007 2043.89086017988 2042.06179769269 2038.79302479482 2038.14195521736 2042.40620939301 2046.01740474006 2043.76909220228 2037.75463822934 2041.36067073347 2047.16105187616 2051.30412971116 2050.341437389 2050.95426740172 2056.17810708389 2056.51414638904 2055.31836571854 2053.35901319946 2051.91794270327 2051.40333981691 2049.99994091945 2048.23476946746 2046.02408611701 2043.72413016107 2041.76202214264 2038.97674051386 2036.02976444746 2031.55709845992 2029.83676344361 2030.95224764172 2024.60716677302 2025.26035202923 2031.5905283703 2039.08225108348 2046.12062629151 2049.39064301778 2048.49702616169 2044.87037446067 2039.94607596616 2033.75157490778 2030.86433224975 2028.17396873202 2024.6033264877 2020.93192392633 2015.81128884986 2015.76565375059 2018.70490012895 2017.45303607377 2016.21527691581 2019.68878270239 2021.0545121542 2021.52576705676 2024.65405168846 2026.03926126749 2026.97156022571 2026.16997076648 2027.05077657887 2026.40180336024 2024.5599079914 2021.00004483674 2015.42366147126 2007.10459608997
2001.76877678702 2002.77182586743 2003.30709324542 2003.33948623946 2003.52233257582 2004.35152021207 2005.61483858011 2007.54331091453 2008.07204925863 2008.30320807606 2008.42713766176 2008.44014906713 2009.29157566386 2010.51412328315 2011.27223623374 2011.41065402686 2011.18047712059 2010.88335491282 2011.29961905216 2011.58857974904 2011.93956709238 2012.34847278869 2012.98379654335 2013.91864602476 2014.5191545176 2015.20687097967 2016.07649880033 2017.11648196275 2018.39221638692 2019.52051524054 2021.07242394006 2022.64767763689 2024.69609619444 2026.14254392148 2026.69156114274 2027.33064915295 2027.81987249725 2028.57826483565 2029.7447565729 2030.91627146331 2031.57570790694 2032.12214234783 2032.52725750453 2032.65836921933 2032.39106569691 2032.21566528001 2032.22037946472 2032.53064154574 2033.09388673318 2034.26480066659 2035.01728970606 2035.78717823758 2036.70007642185 2037.41814182562 2038.18739951825 2038.88977662554 2039.47507548609 2040.10279441098 2040.79430989011 2041.63729099499 2042.5553944659 2043.07548079239 2043.57573897247 2043.99483834217 2044.48496895572 2044.9776599298 2045.23344591458 2045.48656999733 2045.68282067914 2045.90947333041 2046.86946022231 2047.43778472626 2047.81943952404 2048.18043679331 2048.56502992729 2049.12482601944 2049.78444426729 2050.20035999288 2050.51184665722 2050.6943105299 2050.92484195445 2051.27543978147 2051.65372989078 2051.87456346395 2051.73081515901 2051.2898115053 2050.00954321445 2049.75290508381 2050.52347913214 2051.92328509004 2053.03355174985 2053.87450737406 2054.42574681332 2055.09003509117 2055.6474409584 2056.03612832476 2056.54516661476 2056.84669652443 2057.04471228966 2057.09355922682 2056.79674440343 2056.36155713629 2054.82151535075 2053.63421678961 2052.05122599906 2050.18659529437 2049.88876136592 2051.40029564619 2052.21110281697 2052.25824859596 2051.44914368233 2049.81717483423 2049.11387266272 2048.0784371705 2046.75805944089 2045.39353148882 2044.03439739812 2041.98212938237 2037.76346610434 2035.85551522214 2038.99602691027 2043.7672793933 2042.75827702083 2035.69722817171 2039.94119323735 2045.42376365267 2047.26157542217 2045.24571087926 2048.06733822842 2053.18965727106 2055.3717201697 2053.33471950112 2050.31568351777 2050.15912212874 2051.1778725059 2050.26579027269 2048.64857880241 2046.4597600742 2044.56876055149 2042.50885550455 2039.77980575232 2037.40254848169 2032.74529258937 2027.75200867768 2026.29428595408 2022.10245491911 2025.2965571426 2032.63761764566 2038.84673299083 2045.0629245059 2049.04260219197 2047.99767851319 2044.57340710692 2039.81466013143 2034.27411393722 2031.56460335315 2029.06333435835 2026.80742816658 2025.21851203159 2018.09878673703 2010.07959787351 2010.34977858073 2012.03375491179 2015.46437961693 2020.39657476017 2017.80941885182 2017.00922841426 2022.13065600283 2025.72693973101 2026.12169671819 2025.26439693366 2026.90396640017 2026.37739523521 2024.87903682005 2021.84883198012 2017.05692702514 2009.34722746576
2001.45073810686 2002.23043419902 2002.73923184174 2001.51790957934 2001.36185228985 2002.61002897284 2004.16665256877 2006.22188694781 2006.44471630202 2006.65851403796 2006.59471983105 2006.42299116635 2007.54795867143 2008.77947305953 2009.28039390284 2009.22889134331 2008.80667127636 2008.63688221764 2010.48111295925 2011.26316443778 2011.91427438076 2012.55953340927 2013.41702353249 2014.62613881413 2015.3626354392 2016.18298327835 2017.11079634909 2018.10397530299 2019.57701969842 2020.66019715866 2022.2938631906 2023.87344934003 2025.10724958393 2025.96335917071 2026.90400486372 2027.47808735288 2028.01086026436 2028.75655421774 2029.97628655644 2031.19417680765 2031.8028485384 2032.33042315735 2032.76610940262 2033.05915560112 2033.48138183956 2033.63574896077 2033.74083461058 2034.19011323205 2034.72807951434 2035.57084569051 2036.47343404374 2036.88344044439 2037.55142921049 2038.26821242956 2039.10196316272 2039.81060659299 2040.39199023586 2040.95358827758 2041.54252306248 2042.12449062576 2043.23087690245 2043.62862352211 2044.00840920398 2044.3934105067 2044.78541268601 2045.22399904559 2045.60062321794 2045.8399282443 2046.09933340708 2046.37881038819 2047.1378941137 2047.64287503886 2048.02689029663 2048.70419523746 2049.12157034716 2049.61273672015 2050.2084542268 2050.61088070437 2050.87334608751 2050.95359809402 2051.06917863206 2051.33899801941 2051.53576356567 2051.48578358572 2051.12344592334 2050.53630348378 2049.1553774855 2048.9515127527 2049.91857757553 2051.44385688407 2052.65531287356 2053.58098403239 2054.50818128159 2055.2332921128 2055.80142406422 2056.39482221804 2056.93364583769 2057.23659784233 2057.36553654345 2057.27755669415 2056.87669334914 2056.30950835922 2054.60500882688 2053.29506490343 2051.70779363312 2050.05334635802 2049.42129886232 2050.49697160273 2050.66902635571 2049.97705508652 2050.13586398894 2049.35501430941 2046.82738858763 2046.18406109353 2046.50631833757 2045.72086947169 2044.58128447397 2042.83062625032 2038.89726113371 2035.93568838489 2035.40041847531 2041.03925455816 2043.6095020206 2037.07728517612 2032.66041524767 2038.07084892464 2042.70576489514 2039.86691402661 2044.93237650756 2049.06864549531 2051.55525303327 2050.60273642819 2047.78233884112 2048.66724519906 2050.8999534162 2050.13334573742 2048.7524572467 2047.08592266006 2045.55810847366 2042.9885454339 2040.12836802427 2038.04114666438 2033.39662517503 2032.2726780696 2025.19902500584 2019.60838706546 2023.06196447363 2031.2591225745 2036.99528473961 2042.88086019915 2047.84936069947 2047.02945972993 2043.65858476467 2038.86855950565 2035.30642964206 2031.46694460529 2027.77620644008 2024.09992831656 2020.84579339108 2017.31229772175 2010.23723207918 2006.77527129646 2009.69238665492 2016.56439631893 2021.3512092437 2015.28954613546 2014.81633693151 2023.25642413378 2026.47404029137 2024.74421418016 2023.45250735782 2025.97915904695 2025.79765932731 2024.70328872722 2022.32639357391 2017.39702150094 2009.94515362869
1999.04089584629 2000.79473712106 2001.09444231603 2001.00180509482 2000.90974960008 2002.1491515194 2002.01595018583 2002.02788157688 2002.3609272123 2002.56965370243 2002.75553769457 2004.02380961557 2006.24704476069 2007.28288822998 2007.33461715192 2007.0974565522 2006.92534336949 2007.6136513539 2010.36900232287 2011.41758452862 2012.18877486758 2012.89462935547 2013.68696461031 2014.79294024164 2016.08429034639 2017.01835473804 2017.94349094 2018.90741056551 2020.80870932222 2022.3296927706 2023.80503479973 2025.12954078347 2025.76485597382 2026.24674229408 2027.20174921259 2027.77804210412 2028.39040926711 2029.09710823318 2030.16307424702 2031.25200079703 2031.84990898374 2032.25830772123 2032.63002545016 2033.01093840812 2034.10272423757 2034.81194301255 2035.20416621158 2035.75819858733 2036.26960503694 2036.97093425751 2037.74149259683 2037.99259596426 2038.35609596972 2038.97898189509 2039.89920560549 2040.66752993659 2041.22273462229 2041.76018085556 2042.32856251139 2042.89122775483 2043.72669230396 2044.10770057856 2044.46823997839 2044.80725879334 2045.12991447964 2045.49909367723 2045.90047953407 2046.16435560573 2046.45497233039 2046.81930235464 2047.54794462258 2048.03965452787 2048.41054067807 2048.80180171722 2049.21981784893 2049.72595275708 2050.32476285688 2050.85309991835 2051.0340745116 2051.11233607847 2051.13372895348 2051.23787940467 2051.15149641304 2050.85227830824 2050.48959079539 2049.70450003624 2048.65542261726 2048.98272672414 2049.82347723265 2051.09014780818 2052.20174170642 2053.33187316351 2054.87944929057 2055.87786508351 2056.4324119146 2057.01305380996 2057.45185408234 2057.75511300686 2057.74793372499 2057.41177376546 2056.7165923502 2055.99047446079 2054.20021409534 2052.93032596066 2051.40479032294 2049.98451281236 2048.16669725771 2047.91280578188 2049.75479882504 2049.61684524039 2049.90912017991 2048.93473398026 2044.64491554059 2044.14411748929 2045.51909087322 2045.48514131199 2044.90632554202 2043.36293561781 2039.28634326022 2035.56510682302 2032.31121559975 2035.45208406009 2040.69856154765 2040.03441657602 2031.65942693314 2027.5198832866 2033.59886268287 2032.04641171496 2042.92032728478 2046.91833572898 2048.98077745813 2047.63188540737 2044.12121379272 2047.31655362273 2050.31314896902 2049.46025369918 2048.28734369049 2046.97446012678 2045.58152042417 2042.84598609692 2040.22702807058 2038.34405818119 2036.3798981617 2033.550353829 2025.47007316045 2019.14836579172 2022.46198862975 2030.72779193544 2036.31738872553 2042.18399077091 2046.27716008849 2046.11450354784 2043.85023013682 2039.31623695371 2035.98392987288 2030.31351372138 2026.33690002947 2022.98514249959 2019.26226663622 2013.72186519339 2008.44731777893 2006.3150174249 2009.06375230497 2016.7044460123 2018.73009960843 2012.52923425696 2014.64582555483 2024.27063276991 2026.06323385685 2022.02184269448 2018.71001602769 2021.00079187138 2022.42685872189 2023.41686287186 2022.18886646775 2017.60900130842 2010.17446172318
1992.75201865802 1993.93312780335 1994.10989283309 1994.23294011582 1998.21074748694 2001.68727736059 2001.70430965328 2001.36788825996 2001.73349219099 2001.50986064979 2001.07617133729 2002.44402415039 2004.67524138008 2005.94400556582 2006.14234294404 2006.54299252233 2007.21239477263 2008.21820827808 2010.72988118428 2011.72167739529 2012.5056935661 2013.22340578542 2014.08355842102 2015.29941010053 2016.7963288971 2017.75181230968 2018.77943380593 2019.75687803681 2021.81622140851 2023.45596329777 2024.75713935458 2025.62319446853 2026.15684608424 2026.67575167354 2027.48908646745 2028.00545818862 2028.61244688972 2029.26265407076 2029.95221651256 2030.91963573803 2031.73910871132 2032.19030962792 2032.60020694637 2032.99140393069 2034.17453315717 2035.3647871392 2036.21447082265 2036.82052247861 2037.41704507583 2037.94983253921 2038.59592863617 2038.91375685885 2039.27761522351 2039.76057593256 2040.34331466726 2041.2647228643 2041.96905195271 2042.49854759154 2043.07558873805 2043.59294966463 2044.20702082662 2044.53026022993 2044.84815277716 2045.14609264976 2045.41746371378 2045.72472178781 2046.0644938893 2046.30920101242 2046.60127292135 2046.95760980386 2047.41946358232 2048.19355695069 2048.65340367671 2048.97024398178 2049.25316265503 2049.78722899951 2050.5297510174 2050.88102449457 2051.05069371244 2051.07628158094 2051.08716171131 2050.9863054309 2050.42494213162 2049.83413657354 2049.47878827803 2048.41280815934 2049.17847049887 2049.71964836409 2050.81981237456 2051.23040101432 2051.94906278974 2053.16768400942 2055.00424733583 2056.22030841634 2057.18611497938 2057.87468151505 2058.35174465223 2058.49398257808 2058.15691761243 2057.46168144776 2056.30940148057 2055.30459724047 2053.45525539547 2052.4805382367 2051.39996473894 2050.219894363 2048.29983861284 2045.78549164987 2045.82556876665 2047.5111382735 2049.28253220827 2048.82218516411 2044.36954850865 2043.87778719978 2045.35678675466 2044.88995961716 2045.07509548009 2044.24848591163 2040.11450418679 2036.10905786559 2032.57308857318 2029.01383276677 2032.72416840066 2038.55384779788 2036.46906312094 2026.40344888517 2024.85798964315 2029.03391525951 2036.93996874322 2045.95053431831 2046.2624885591 2043.78417111195 2042.18743281704 2046.1509450865 2049.11643107006 2048.31620042132 2046.99096096893 2046.03454281974 2045.14325343882 2042.25831028391 2039.10082085111 2037.06985631132 2036.72860789623 2034.70061968001 2030.79109744459 2020.3982894821 2021.68984877455 2030.74136074046 2036.30748966231 2041.41923690443 2044.68474692305 2045.05225262996 2043.69078109734 2040.62320165753 2037.22801482244 2031.20403488012 2029.52488970792 2025.08347518006 2020.0102241593 2015.00553182342 2009.64791963125 2003.70349125314 2007.99214428996 2014.2227881073 2011.36170740015 2011.11734353703 2016.52316551307 2023.95897943452 2025.35370306792 2020.38569468691 2016.46512157138 2016.76411069324 2019.10870727255 2021.29034958017 2022.04439643246 2019.12038250393 2012.56840696174
1990.10047096769 1990.82262076337 1994.19636461377 1994.90857895369 1994.376157694 1994.28621295749 1996.25399503277 1999.13133506907 2000.17152597446 2000.46114807411 2000.98779754426 2002.34362457248 2004.03389199935 2005.76659788514 2006.74057914742 2007.43499576351 2008.26581396573 2009.28492890027 2011.13725484049 2012.1869409612 2012.90710518307 2013.71561158299 2014.55688239614 2015.90027045103 2017.55572170434 2018.45518429861 2019.37642833257 2020.53360148061 2021.71291907314 2023.9222910436 2025.29276708489 2025.86304990226 2026.32627408291 2026.79446760072 2027.54409475355 2028.00640887133 2028.53789991456 2029.09449022683 2029.61204696493 2030.39394426915 2031.13422963414 2031.50084751297 2031.82676404071 2032.26151741141 2033.04529557778 2035.3349877443 2036.28037264487 2036.94039364327 2038.0436598081 2038.57345443235 2039.27578980057 2039.63762255448 2040.03106781495 2040.49665161988 2041.0007085536 2041.92757735847 2042.70523090207 2043.29090751609 2043.64409784087 2043.99626231919 2044.56559047518 2044.86256708285 2045.14493142104 2045.3983479762 2045.61120491561 2045.84480010718 2046.09805314812 2046.28985179674 2046.52151501037 2046.80848233652 2047.17551868148 2048.01458347822 2048.56522892559 2048.88208417842 2049.10257806847 2049.60107031451 2050.59279813012 2050.75128936735 2050.84840952505 2050.93847655371 2051.08285860603 2050.9675828009 2050.37116799379 2048.71499220077 2047.15245453002 2046.34512138318 2047.20417961888 2051.93564137814 2052.0282272364 2051.44552908517 2051.75057766647 2053.13909979915 2055.45678821502 2056.75368775179 2057.83161300229 2058.79353175699 2059.4269850143 2059.33425900173 2058.52462506132 2057.30075375133 2055.94900312471 2054.67661854944 2053.23379405962 2051.72399750254 2051.65433696024 2050.76817873156 2049.04098692983 2045.4296501488 2042.6382485514 2044.42435952581 2047.33512661603 2047.9274585527 2044.61930063387 2043.41896601368 2044.99077553694 2044.84612906829 2045.08576274706 2044.97170442847 2044.3530568312 2040.79400237773 2039.38750895122 2037.25634032916 2029.99800648414 2027.97442873789 2032.77872290772 2027.23707211094 2020.79620308524 2027.38891861926 2036.61878387051 2046.0017810222 2044.70414239704 2040.90007340778 2039.89850646276 2045.08453615331 2046.56579094341 2045.5910833937 2044.30677169547 2044.33959383122 2044.51784291408 2041.90309912221 2039.25009116162 2036.67966476938 2031.94985545502 2029.91307656936 2027.7240853966 2019.17112623598 2018.87939528365 2026.01336814738 2034.15865999911 2040.58812588269 2044.57414623923 2044.97679846382 2043.6723196995 2041.0766146925 2038.56104414164 2034.14388432708 2031.38946887009 2025.35677402838 2019.62769108526 2018.25189773315 2012.73267527127 2001.20441041812 2003.3412710623 2007.62513356331 2003.62215839455 2012.83461258301 2021.63876637699 2025.00828077716 2024.3178871718 2018.90439583341 2014.7941476452 2013.04768275499 2017.55587421924 2021.68641745458 2023.73512262833 2019.2356772689 2011.31548964287
1993.82241254657 1995.70728953659 1996.07756958921 1997.3296013313 1997.41439089651 1997.60384084236 1998.75848503102 2000.44121794002 2001.87524383404 2002.50242170877 2003.00966266882 2003.62272537163 2004.44900536332 2005.8431923125 2006.82185597452 2007.52154941887 2009.35037274057 2010.47470061925 2012.42347676648 2013.20333067335 2013.77828181231 2014.31536396988 2015.31531435744 2016.64711797388 2018.31804774902 2019.25530550088 2020.06542219705 2021.01510826672 2022.26464749667 2024.35642403552 2025.43210738787 2025.93379683958 2026.33228614683 2026.6668408588 2027.27532038658 2027.6702611371 2028.11341986483 2028.53149165747 2028.95636004505 2029.58970814613 2030.17715308932 2030.56433985061 2030.90413464333 2031.34032618317 2032.3822196483 2035.5105553818 2036.7331988422 2037.55123167041 2038.05545853231 2038.58658801098 2039.28182952533 2039.83863923091 2040.54066882748 2041.03853275331 2041.55035761341 2042.43965282218 2043.2663176984 2043.71992675454 2044.01516751555 2044.31260419316 2044.61217211341 2045.11483645858 2045.34687522282 2045.52741922677 2045.67650995308 2045.83058206457 2045.99282046999 2046.09701491086 2046.19999370885 2046.29399188375 2046.50602381138 2047.20124068888 2047.79529572879 2048.21047433569 2048.62263671838 2049.18252244901 2049.76853232257 2049.81430937442 2049.70236227228 2049.85126198709 2050.30904029602 2050.35753103682 2049.58961144017 2048.37680241907 2047.01450572099 2046.19940398784 2046.22938995729 2050.47757788424 2051.28646408352 2050.88295124088 2051.31402410315 2052.67511138557 2055.26616915145 2057.61303861587 2058.70001825975 2059.60912014231 2060.25735745692 2059.73340871667 2058.41538585629 2057.01062981441 2055.61115470236 2053.70281788719 2050.94113299798 2050.08184591107 2050.87360891837 2050.88086905016 2049.89708682559 2046.19611041349 2040.38452510126 2041.77198792643 2045.52262272272 2046.08791782433 2044.41578156086 2041.94344620959 2044.37160524811 2043.45303733788 2044.80113956701 2045.31066499733 2044.38903856118 2040.94058872332 2039.52265982379 2038.68384522109 2035.78095632445 2024.73359691807 2019.50431184514 2020.23003003983 2018.6603015504 2027.31177902014 2037.22797726903 2043.34622560282 2040.72399329282 2037.48044734707 2040.45404683965 2044.92135460683 2044.85462618002 2043.58373420723 2042.82478055573 2043.27884928999 2043.89079207106 2041.75934956995 2039.46467721677 2038.05860781482 2036.14647015325 2032.2327266926 2028.09385046297 2020.61072532756 2018.22669221531 2021.64250761279 2028.54114636649 2035.59869499768 2040.72858726093 2042.98618537932 2042.49983098383 2040.82659491029 2038.56550816105 2034.31625361266 2031.71298831312 2026.26031343758 2024.8795317585 2021.7079917294 2015.80798945268 2004.97463200804 2000.11938642883 2000.07647680567 2003.08492071185 2011.99041740331 2022.19316669868 2025.22053498622 2020.89921419127 2016.48967334204 2013.44326311597 2011.05479379116 2015.72917729075 2019.93813196395 2021.82749077923 2018.47079876688 2010.06827822425
1986.87769550266 1993.73847564263 1998.36408298265 1999.93623953187 2000.84702488395 2000.85867188273 2001.99062031149 2002.88234733909 2003.96261145819 2004.80862766826 2005.4088682765 2005.87562188097 2006.35492605142 2007.20675877511 2008.08148226134 2008.85607744835 2009.7358783583 2010.67307902012 2011.75516340162 2013.38682023708 2014.67075744837 2015.06242221717 2015.89702396027 2017.2582205715 2018.76541084052 2019.6852754739 2020.45371241424 2021.32539361439 2022.47909511065 2024.28809131086 2025.20331436803 2025.65832404452 2025.97911403746 2026.1690805947 2026.44513293063 2026.97421217881 2027.30304395405 2027.63645498013 2028.0478279712 2028.75480879552 2029.58139119246 2030.13018285231 2030.66718297167 2031.34271964244 2032.42507861801 2035.4595216587 2036.74122681207 2037.59656475116 2038.15292407069 2038.70566839505 2039.32186171342 2040.09576674018 2040.60363064596 2041.11183309885 2041.83886175699 2042.81837149841 2043.48314926186 2043.91363212721 2044.295014646 2044.60034724955 2044.8485809003 2045.22660936361 2045.39866905184 2045.53880266893 2045.65146133917 2045.74971468823 2045.7791025537 2045.71926257512 2045.6199373483 2045.46746679787 2045.31820558142 2045.66762324117 2046.21862180321 2046.85007703086 2047.45178756629 2048.01808029647 2048.46237465311 2048.48648254327 2048.48769838361 2048.72593370562 2049.2338246548 2049.27966695218 2048.40169806326 2046.91918757426 2045.10225451894 2044.25610802047 2045.9618638947 2050.15770815167 2050.92118862951 2050.49248390149 2050.35454376782 2052.65359252458 2055.87724152199 2058.53118812342 2059.71554887855 2060.62019738201 2061.10002859761 2059.75337154843 2057.96701551609 2056.5019980219 2054.85310059619 2052.39018632888 2049.92695602289 2048.91114339712 2049.79433686002 2050.31444923015 2049.82777122567 2048.26376978753 2042.50593363287 2040.50046520009 2044.37177812204 2046.16597301238 2045.2645097466 2038.62707837039 2039.12774707774 2041.4602721463 2043.75213654763 2044.85521534321 2044.60837093812 2042.8413483886 2041.19081936638 2039.46691284962 2035.85415797244 2027.65143301566 2022.09777431685 2017.9448791729 2018.79725642418 2027.51266806298 2035.93104582551 2032.66477570397 2032.01838846624 2032.87674841284 2038.05988763629 2042.58037103256 2043.16675202111 2041.18281277011 2040.01539256779 2041.47992399677 2043.07526805041 2042.4090912665 2038.51143451665 2035.98158257455 2032.61784681851 2030.30182206733 2025.59537866874 2019.07057674949 2015.99290965427 2017.68676033059 2024.90394196685 2030.52123655265 2036.38373961156 2041.16829775983 2040.99375164096 2040.01821333228 2038.53326990195 2036.30821800851 2031.41397937134 2026.50076547282 2025.14555679411 2022.14850156819 2016.30778295363 2004.30039613571 1997.58710364703 1997.02937403476 2005.249718885 2014.45483110821 2021.33594355879 2023.29668401553 2019.89655632233 2015.02002414952 2010.4857339643 2009.08323075658 2015.12683759679 2020.00916303687 2020.94671246075 2019.49888085251 2010.40810737386
1987.33278275577 1993.67479343032 2000.23251785316 2002.18035812329 2003.04810370062 2003.90293663824 2004.66736836279 2005.27514832936 2005.7792401152 2006.87464835595 2007.44909258301 2007.81858180386 2008.22608988771 2008.8809189737 2009.64627659528 2010.48386900242 2011.36041839888 2012.15031229571 2012.94923984532 2014.20909094992 2014.78866587505 2015.2332256898 2016.14240759018 2017.44174382789 2018.68720894751 2019.94773530025 2020.61207007996 2021.36816223467 2022.33767676452 2023.84650999545 2024.49717909279 2024.84039312147 2025.09080252396 2025.24571846756 2025.48438599816 2026.01851034956 2026.24308853838 2026.44927817538 2026.69222784983 2027.41525124538 2029.11961398476 2030.41609998963 2031.1371912198 2031.84597210985 2032.61627247885 2034.76826210594 2035.99514120403 2037.11699185191 2037.70950739603 2038.24953662013 2039.08055197131 2040.37717500767 2041.09163873076 2041.65802095314 2042.11482184855 2042.84627759776 2043.5298288416 2043.97395788422 2044.49978926359 2044.77713186244 2044.97141249468 2045.22555798172 2045.34878207632 2045.44887044575 2045.55333230823 2045.59294790451 2045.51439257947 2045.27286930372 2044.92972719155 2044.51018271791 2044.02958703881 2043.98668569837 2044.73010158948 2045.55006302614 2046.14539198268 2046.44987947212 2046.67417415916 2046.84579787558 2047.03503499295 2047.34359548838 2047.71135817135 2047.82202428806 2046.9899280259 2045.51719336929 2044.02080844284 2043.696435632 2044.99978731244 2047.85459018884 2048.49052378018 2048.91528247893 2050.30053486816 2052.68811117025 2055.95368961482 2058.95272815082 2060.50206380021 2061.3672560162 2060.96065508057 2059.56573308735 2057.14452257113 2055.50991857473 2053.72394129035 2051.05837191835 2048.77656439824 2047.05282731602 2048.05932835023 2049.01852238364 2049.0288444564 2047.58061825027 2043.50060615348 2038.1252715214 2040.29050563033 2046.08494632335 2045.83703936688 2040.0272648354 2037.34266369578 2041.47671633825 2043.46167994682 2043.57773050846 2043.79004079874 2043.41492645162 2041.72490297855 2039.6830630455 2036.76025153244 2032.03254529923 2024.8012165054 2018.51911382596 2018.3656513431 2026.55500847459 2027.01677548031 2023.99448306635 2033.32576927042 2038.41098714385 2040.31980890252 2042.60638249616 2041.82461721453 2038.37442929162 2038.01826205318 2040.45388612864 2042.43693325119 2042.43721574337 2038.80052633315 2034.19453962674 2031.1138276677 2030.85806839028 2027.35988508053 2023.49612468469 2019.94250795694 2014.48546037706 2015.37922040388 2021.97822081691 2033.82024678108 2040.28018775046 2039.12219536225 2038.63255552509 2037.8936053533 2034.12115080778 2027.93291720168 2026.45803701963 2026.3950844615 2023.72038704386 2017.09442270698 2005.35000836906 1996.87311592767 1997.13256205328 2007.47252262461 2015.61199524845 2019.73690855556 2022.35858437872 2020.82971808781 2016.4818404545 2010.91182513354 2005.80029682392 2010.38606753584 2014.84721367776 2016.10234089164 2018.29411158696 2012.36759726275
1988.45849892714 1993.25459535244 1998.88569122608 2002.01947888149 2004.3498156944 2006.22446406274 2007.15850842567 2007.39424408902 2007.54122060369 2007.92926312359 2008.44921660438 2008.95946191928 2009.52435309817 2010.33772408086 2011.26633979773 2012.09679080213 2012.8350703082 2013.37028545075 2013.70157911898 2014.56252913203 2015.26441790902 2015.97045418421 2016.71394298111 2017.6024784908 2018.80750658858 2020.01869648012 2020.72073479086 2021.40730395629 2022.16141277616 2023.04253855938 2023.42870571683 2023.58996809277 2023.76529047041 2023.97369082163 2024.30876444401 2024.88558888566 2025.02666788369 2025.13866148937 2025.17607213267 2025.48753507331 2028.0887227436 2030.56760519779 2031.44568680506 2031.77232788416 2032.13394163213 2033.06891605116 2034.91066281075 2036.24279581003 2036.89485646242 2037.46405333867 2038.77561938003 2040.81730447718 2041.6461374115 2042.19375454783 2042.63634166309 2043.09762594654 2043.80148943499 2044.27299315738 2044.58373820745 2044.8196832435 2044.99137006357 2045.25210085609 2045.32129043597 2045.38030297697 2045.42152841967 2045.39383839739 2045.22996985112 2044.82463503824 2044.29769866063 2043.76924982692 2043.37316118228 2043.01687591142 2043.88389856797 2044.53418903813 2044.7542999046 2044.76353347878 2044.82078353049 2044.86482287212 2045.00588863387 2045.41355883004 2045.72718644102 2045.88011921518 2045.30277832405 2044.23980345316 2042.92585250489 2042.79823711892 2043.58208021179 2045.66694666073 2047.33991148377 2048.27623339905 2050.23363543238 2053.05987360931 2056.10371445093 2058.95986192124 2060.53368953059 2061.33150716423 2060.2300647393 2058.4525634696 2056.07451155476 2054.30785761677 2052.57166374934 2050.51977276385 2048.24254281506 2044.74985418719 2045.35727126199 2047.21910097482 2047.42240191317 2046.16988402024 2041.84968401156 2035.74624052906 2036.11521359141 2043.73011045036 2044.97692236038 2037.45187775608 2036.63941738094 2041.54826613183 2041.993177363 2042.81018684154 2044.02526001377 2043.57698583958 2041.86621649861 2039.94207494991 2038.20308901718 2036.69662792877 2030.27670471987 2022.21984984301 2017.11928533624 2020.21255397869 2024.12586862185 2024.31329142653 2034.44166036209 2039.96917718922 2041.25815779757 2042.06714279681 2040.06616395084 2037.17824478946 2038.61042267255 2041.17718472055 2043.23560179607 2043.24500708218 2038.89249775925 2036.33140462125 2035.50562850309 2035.26850065292 2033.38220973934 2030.65958648322 2025.15170351158 2017.42058358598 2012.15820285696 2015.64313031913 2028.99957837499 2036.92115940505 2036.04632877087 2035.70226230794 2035.72720498693 2030.02007207304 2020.99229704113 2018.72781797669 2022.52993117485 2022.53107552069 2019.24208995018 2008.71696806353 1995.08328423371 1997.57387885523 2008.26310850579 2016.3068744842 2022.06974494484 2024.21346040544 2022.01599736171 2019.02306779097 2013.38480893982 2006.79700315512 2001.47430109368 2005.81124503785 2008.14448093895 2013.74268297204 2014.27601275819
1987.47092087885 1991.72095877961 1996.09086986864 2000.88394757304 2004.53957470037 2006.81154627619 2007.74349180167 2008.22822830523 2008.59165757069 2008.85266611698 2009.05204898152 2009.4455164373 2010.06567906629 2010.87656644758 2012.26784619286 2013.18097991404 2013.58174180585 2013.89030897359 2014.23854029642 2014.76577979403 2015.3098777246 2016.18687522919 2017.15478151167 2018.11271027522 2019.21450612325 2020.23489568052 2020.78214147398 2021.36781266821 2022.05136767618 2022.34060937287 2022.52139003018 2022.6627718156 2022.73946365727 2022.37398874196 2022.69262983902 2023.30728865807 2023.60040785598 2023.90266503682 2024.33470879447 2025.20251093637 2027.38719389155 2029.61418965856 2030.57064003612 2030.77405007513 2030.90194040052 2031.63657312002 2034.08805510512 2035.66671757045 2036.64714173343 2037.61942993465 2039.23574905116 2041.42582745844 2042.24083801861 2042.79267631142 2043.22598430651 2043.60988579503 2044.16999283216 2044.56142721939 2044.80093936081 2044.96479593467 2045.04988385438 2045.22512153939 2045.27091375875 2045.30288907276 2045.29506328295 2045.19207909812 2045.01905320097 2044.50292423257 2043.78725299296 2043.12602822439 2042.7021413218 2042.32351722661 2043.00078449968 2043.29312391278 2043.2518188663 2043.15989644218 2043.10506578182 2043.10188897594 2043.19546502804 2043.67394260972 2044.30295442513 2044.76061927508 2043.74033769896 2041.90831945906 2040.93284885734 2041.37150240313 2042.39355432131 2043.2668044428 2046.38000655521 2048.0963904986 2050.61509003157 2053.51042851409 2055.87164728362 2058.20792880617 2060.17737830502 2060.50664955734 2059.37311161093 2057.78901851068 2055.57204782629 2053.56956400572 2052.05935965002 2050.19172730192 2047.91945232432 2045.35774514529 2043.68120582317 2045.91430328702 2046.6050713005 2045.71972287455 2040.57605430317 2034.22619105158 2032.82109932731 2037.78125970521 2039.85708073647 2034.63636775794 2031.5936806243 2035.50663549973 2039.8075854328 2044.2732379992 2045.38053296784 2044.43119184981 2042.12469488684 2039.38454630962 2036.47752960858 2033.89526867838 2030.21538641395 2025.34333373558 2017.88658874005 2013.2803315616 2018.42470589183 2026.02175597537 2037.74384555117 2040.43642404512 2041.72570232686 2041.86069776146 2039.39820876203 2037.29257787311 2039.26035662004 2041.69809570539 2043.20226873105 2042.91358493563 2039.84539729995 2038.79875829784 2038.3445204226 2037.44551162951 2035.55575557228 2032.91254519807 2028.54905158822 2021.64410921089 2012.69116823726 2009.70984664109 2016.6298026357 2025.30039470132 2028.78856693364 2032.88740481091 2033.00513629346 2028.50466312127 2016.16817836683 2010.80417125712 2013.16152368982 2017.21226365107 2014.00713346549 2004.12091317745 1993.89812096172 1999.74246777801 2011.24579019698 2018.70114429334 2022.89671542759 2024.38224661139 2022.27780806287 2020.08251813173 2015.0242683888 2008.47412362144 2001.07328527359 1998.62041734935 2001.67388993084 2009.76896348501 2014.02232459449
1987.46957721315 1990.89338611085 1996.68788683816 2002.13123362337 2006.46158978166 2007.36962125764 2008.20012959747 2008.82725281097 2009.32949705207 2009.574639181 2009.43006234738 2009.41966099138 2009.75704428659 2010.5368845383 2012.23134572517 2013.21592472715 2013.60207730842 2013.91705361643 2014.22442141884 2014.53634250507 2014.83640639453 2015.64548573713 2016.88565239426 2018.18717203508 2019.35923823946 2020.2316056608 2020.66927365308 2021.17240702562 2021.63553625812 2021.91423076624 2021.94425441973 2022.03173021252 2022.08780514013 2021.34989170053 2021.48555699687 2021.94383578062 2021.9451729702 2022.57871599717 2023.506070719 2024.69028591764 2026.52560409961 2028.84239498606 2030.13049597375 2030.70846150723 2031.32852654465 2032.14344365873 2034.63632475245 2035.76288400494 2036.84596085253 2037.87044574589 2039.67000190474 2041.88046043968 2042.92375139224 2043.42809363431 2043.77645023279 2044.06014889357 2044.53594504528 2044.83917261394 2044.99738323451 2045.06990190231 2045.11627071586 2045.13589335345 2044.96162191637 2044.86311396265 2044.87896465783 2044.89362109151 2044.75934272044 2044.26744307607 2043.5316576398 2042.7235695387 2042.2426128288 2041.55682271157 2041.79459523778 2041.93098364078 2041.80169900831 2041.62825653254 2041.53143908695 2041.62665109151 2041.9988021745 2042.48458695711 2043.29309873597 2043.96123696104 2041.65943403423 2039.00081285001 2039.15202180021 2040.31176536702 2041.4347051191 2042.39918339845 2045.90488686087 2048.10634913339 2050.58135618769 2052.97771300146 2054.59548186368 2056.695985186 2058.53623782717 2058.12403082912 2057.01893777379 2055.76581320642 2054.08966988225 2052.99289721606 2051.73671171981 2050.03998467543 2047.73211110907 2044.98582047756 2042.8963426769 2045.68306759011 2046.71582578363 2046.47312209014 2043.48461766418 2038.01605530081 2033.44698340207 2031.56991888397 2031.58422887477 2029.50001374159 2026.68515451562 2033.42141850904 2041.03080198448 2045.52174208858 2045.8025771774 2044.6306702154 2041.95973385324 2039.10497149318 2035.31056713907 2030.4408575232 2025.76430715259 2021.20628818945 2015.52841629103 2013.9738464026 2021.45520460609 2030.15935260006 2039.74296301223 2041.74741986832 2042.8415066811 2041.08196235524 2037.41375336705 2036.15133100225 2039.26771598786 2041.43095729943 2042.56141235555 2042.43272275256 2040.6460903174 2038.50440897256 2037.80233818735 2036.77532021592 2034.51081460594 2031.69122953383 2028.22279904894 2024.07341790306 2018.00978225487 2011.95689883607 2007.95876425054 2013.89070954599 2023.66478995566 2031.12044760984 2031.34643158279 2027.87815224885 2017.4563982572 2010.78313513566 2006.65567902387 2006.30391034022 2003.00637050863 1996.6963888132 1995.27462066142 2004.11054014242 2014.2677008828 2019.90645013521 2023.34696244155 2024.26872318015 2022.51248454126 2020.13017822792 2015.5580007372 2009.55552986319 2001.31477836231 1996.66173346565 1998.61352116183 2007.64234427741 2013.52292306001
1988.04460633987 1988.05826823856 1994.77449326119 2001.57054331624 2007.89531612736 2008.69075636552 2009.24844236073 2009.68886260296 2009.91414089227 2009.59894353846 2008.76312931497 2008.56809425116 2008.79820250028 2009.51416257588 2011.11460890219 2012.13824562779 2012.82265109046 2013.38465887502 2013.75649285704 2013.76092773302 2013.70224470196 2014.43018202027 2015.88273836092 2017.56944817381 2018.97827566006 2019.91900554497 2020.32781201509 2020.73135842886 2020.89409831657 2020.76952822374 2020.44486923999 2020.42199201668 2020.44542714523 2020.51448974971 2020.6050458184 2020.82349579212 2021.00602010757 2021.76281142616 2022.79012573692 2024.49036710942 2027.14072187431 2029.72329436693 2031.14332892392 2031.91125948292 2032.77320490335 2033.82129180723 2035.96017500149 2036.74500759982 2037.65882785754 2038.83776092017 2040.59693936188 2042.44973688834 2043.6851164475 2044.02756607677 2044.29116715388 2044.53397796973 2044.90040271191 2045.10609817816 2045.1745426027 2045.19268250456 2045.18990572736 2045.00067689297 2044.36044376636 2044.03126004692 2043.96683602798 2044.07805381633 2044.06224654198 2043.65722991053 2042.96663215184 2042.1488739397 2041.58447192406 2040.9664668263 2041.11809189164 2041.14409211492 2040.19324351403 2039.95215823552 2039.73307688946 2039.7824112393 2040.47642492008 2041.22126095976 2041.96454466403 2042.08404255201 2039.69965286041 2037.88486846568 2038.3901746967 2039.50698434516 2040.84848883143 2042.14080675206 2045.79373248646 2048.02643013596 2050.44079803699 2052.86402969721 2054.83642809442 2056.24917242885 2056.42203576223 2055.73216872828 2054.8151302659 2053.93565559167 2052.81967725427 2051.67744329843 2050.98972288236 2049.62669688944 2047.34566069202 2044.42919429511 2040.82089773457 2045.1349028294 2046.68133265751 2047.04631039438 2046.07157388457 2042.43964212821 2038.46108562158 2035.78098666428 2032.63491640726 2029.68402805682 2023.559392159 2029.69189010604 2037.52496098278 2042.49862876912 2042.50650046361 2041.8273651324 2040.00546013449 2037.55689489236 2035.51995475738 2033.24752682822 2028.75620812934 2017.13141890107 2011.74543902604 2015.64385666748 2023.29623804431 2031.79203105383 2039.56128978377 2041.737099476 2041.75983381343 2038.46494174391 2033.42934498172 2033.81591912551 2039.43150133282 2041.10298145671 2042.05705410066 2041.93067689914 2041.17092394729 2037.99473183093 2037.11230305772 2035.66782661347 2031.77627893447 2028.25226158497 2023.04236780729 2020.34804824278 2016.63798600422 2013.23484538097 2008.89236592899 2010.85478135182 2021.3374200295 2028.26224220239 2027.4334506689 2023.61878624886 2020.4246280324 2017.92297504817 2007.84776131984 1999.55387026151 1994.70177129541 1992.64943456883 1999.03564852983 2008.95746735287 2014.66140000557 2016.64467509188 2019.72765366936 2022.21350763705 2021.70101359673 2019.89244290539 2015.95554825317 2011.25498827394 2004.3622419954 1996.88770777408 1996.91432657225 2005.61765941967 2012.40211486463
